-1.38389 -3.97763 -6.35544
-0.723862 -3.89385 -6.34522
-0.95969 -3.87676 -6.2844
-0.940827 -3.9338 -6.34953
-0.982461 -3.79832 -6.21958
-1.17545 -3.90561 -6.28718
-1.40443 -3.84554 -6.22306
-1.39358 -3.92254 -6.28906
-0.775526 -3.7563 -6.21704
-1.00894 -3.69685 -6.15695
-1.19235 -3.82798 -6.22165
-1.21153 -3.72686 -6.1584
-1.61791 -3.8513 -6.22359
-0.68725 -3.95746 -6.52153
-0.909672 -3.99285 -6.5282
-0.908431 -3.98063 -6.57596
-0.691698 -3.92179 -6.60745
-1.14097 -4.01529 -6.4782
-0.915618 -3.99021 -6.4733
-1.13573 -4.01669 -6.53364
-1.13404 -4.00348 -6.58176
-1.37565 -4.01267 -6.42024
-1.36917 -4.02954 -6.48152
-1.36269 -4.01622 -6.58569
-1.13617 -3.97742 -6.62067
-1.6038 -4.01746 -6.42134
-1.59955 -4.03396 -6.48278
-1.36475 -4.0301 -6.53732
-1.59373 -4.02006 -6.58719
-0.235248 -4.75374 12.7326
0.270362 -4.49733 12.757
0.289898 -4.53694 12.7326
0.540581 -4.40319 12.7326
0.518497 -4.36494 12.757
-0.507332 -4.83615 12.7326
-0.492069 -4.89312 12.6564
0.030892 -4.65389 12.7326
0.315987 -4.58984 12.6564
-0.21629 -4.80958 12.6564
-0.193091 -4.87792 12.5286
0.053464 -4.70838 12.6564
0.606165 -4.51678 12.5286
-0.166175 -4.95721 12.3494
0.081085 -4.77506 12.5286
0.113132 -4.85242 12.3494
0.347912 -4.65457 12.5286
-0.525935 -4.76673 12.7294
-0.261458 -4.67654 12.6496
-0.258232 -4.68604 12.5174
-0.525836 -4.7671 12.5174
-0.249444 -4.71192 12.757
-0.258354 -4.68568 12.7294
-0.000315 -4.57856 12.6496
-0.248153 -4.71573 12.3326
0.01399 -4.61309 12.757
0.2581 -4.47246 12.7294
0.00338 -4.58748 12.7294
0.258269 -4.47281 12.5174
0.003527 -4.58784 12.5174
0.272138 -4.50093 12.3326
0.253829 -4.4638 12.6496
0.504825 -4.34126 12.5174
-0.518761 -4.7935 12.757
-0.792786 -4.85751 12.757
-1.07034 -4.90364 12.757
-1.07396 -4.87615 12.7294
-1.35206 -4.9039 12.7294
-0.800076 -4.82086 12.6496
-0.798193 -4.83033 12.7294
-1.07522 -4.86658 12.6496
-1.63134 -4.91326 12.7294
-0.528434 -4.7574 12.6496
-1.35269 -4.89427 12.6496
-1.63134 -4.91364 12.5174
-1.63134 -4.9036 12.6496
-0.798119 -4.8307 12.5174
-0.792003 -4.86145 12.3326
-1.07391 -4.87653 12.5174
-1.06982 -4.90762 12.3326
-1.34999 -4.93558 12.3326
-1.35204 -4.90428 12.5174
-1.63134 -4.945 12.3326
-0.784172 -4.90082 12.7326
-0.772668 -4.95866 12.6564
-0.473391 -4.96282 12.5286
-0.742257 -5.11157 12.3494
-1.05688 -5.0059 12.6564
-1.04746 -5.07745 12.5286
-0.758591 -5.02945 12.5286
-1.35025 -4.93157 12.757
-1.34736 -4.97564 12.7326
-1.06458 -4.94742 12.7326
-1.34351 -5.0345 12.6564
-1.33879 -5.10652 12.5286
-1.03654 -5.16047 12.3494
-1.63134 -4.94098 12.757
-1.63134 -5.11632 12.5286
0.241973 -5.16344 7.01513
0.533869 -5.03163 7.01513
0.577384 -5.11986 7.49027
-0.057963 -5.27596 7.01513
0.198011 -5.05732 6.55922
0.816386 -4.8809 7.01513
-0.394325 -5.2579 6.55922
-0.094886 -5.1672 6.55922
-0.136254 -5.04534 6.12959
0.483058 -4.9286 6.55922
0.426129 -4.81317 6.12959
0.694588 -4.66993 6.12959
-0.427631 -5.1336 6.12959
0.095231 -4.80921 5.73327
0.148757 -4.93842 6.12959
0.364262 -4.68772 5.73327
-0.026342 -5.36911 7.49027
-0.31864 -5.54036 7.97759
0.017566 -5.49845 8.47005
-0.00088 -5.44411 7.97759
0.3319 -5.38052 8.47005
0.028139 -5.52959 8.9606
0.346684 -5.41621 9.4422
0.279622 -5.25432 7.49027
0.309937 -5.3275 7.97759
0.652359 -5.27189 8.9606
0.344489 -5.41091 8.9606
0.612424 -5.19091 7.97759
0.905191 -5.03471 7.97759
0.637809 -5.24238 8.47005
0.950337 -5.11291 8.9606
-0.33914 -5.46386 7.49027
-0.97977 -5.59177 7.49027
-0.969434 -5.67031 7.97759
-1.63134 -5.71437 7.97759
-1.63134 -5.63515 7.49027
-0.641954 -5.61589 7.97759
-0.630761 -5.67216 8.47005
-0.961946 -5.7272 8.47005
-1.29969 -5.70326 7.97759
-0.303789 -5.59579 8.47005
-0.624345 -5.70442 8.9606
-1.29379 -5.79336 8.9606
-1.29594 -5.76053 8.47005
-0.295276 -5.62756 8.9606
-0.623226 -5.71005 9.4422
-0.957653 -5.75982 8.9606
-1.29341 -5.79908 9.4422
-1.63134 -5.80466 8.9606
-0.364598 -5.36884 7.01513
-0.751381 -5.06569 5.73327
-0.657405 -5.5382 7.49027
-0.676593 -5.44172 7.01513
-1.0076 -5.38036 6.55922
-0.698998 -5.32907 6.55922
-0.724101 -5.20286 6.12959
-1.30487 -5.62421 7.49027
-0.992607 -5.49424 7.01513
-1.31881 -5.41141 6.55922
-1.02439 -5.25276 6.12959
-1.04264 -5.1141 5.73327
-1.3113 -5.52604 7.01513
-1.63134 -5.42188 6.55922
-1.63134 -5.29316 6.12959
-1.32723 -5.28298 6.12959
-1.33637 -5.1434 5.73327
-0.721957 -2.48523 3.22441
-0.632352 -2.66692 3.31231
-0.970525 -2.58785 3.22441
-0.844553 -2.54059 3.22441
-0.806989 -2.31281 3.14338
-0.699428 -2.25543 3.14338
-0.603301 -2.42192 3.22441
-1.14906 -2.4412 3.14338
-1.03231 -2.40584 3.14338
-0.918121 -2.363 3.14338
-0.885917 -2.15278 3.06711
-1.08967 -2.23689 3.06711
-0.986409 -2.19815 3.06711
-0.869254 -1.96128 2.9935
-1.04689 -2.8225 3.31231
-0.838087 -2.97797 3.40919
-0.769661 -3.17953 3.51714
-0.882511 -3.43597 3.63827
-0.701245 -3.38106 3.63827
-0.905412 -2.77965 3.31231
-0.767027 -2.72774 3.31231
-0.686868 -2.92124 3.40919
-0.605398 -3.1179 3.51714
-0.445538 -3.04572 3.51714
-0.52394 -3.31454 3.63827
-0.539703 -2.85478 3.40919
-0.290814 -2.96317 3.51714
-0.351387 -3.23662 3.63827
-1.14998 -3.06154 3.40919
-1.33664 -2.88036 3.31231
-1.46998 -3.10405 3.40919
-0.992683 -3.0248 3.40919
-0.937593 -3.2304 3.51714
-1.10846 -3.27031 3.51714
-1.30931 -3.08802 3.40919
-1.28153 -3.29907 3.51714
-1.25375 -3.5101 3.63827
-1.45607 -3.31649 3.51714
-1.63134 -3.53523 3.63827
-1.06694 -3.47905 3.63827
-1.22644 -3.71766 3.77469
-1.42846 -3.73782 3.77469
-1.44215 -3.52889 3.63827
-1.63134 -3.74461 3.77469
-1.09931 -2.62686 3.22441
-1.30264 -2.29396 3.06711
-1.19523 -2.26887 3.06711
-1.19084 -2.85613 3.31231
-1.23035 -2.65747 3.22441
-1.26784 -2.46895 3.14338
-1.38816 -2.48894 3.14338
-1.41144 -2.31204 3.06711
-1.49692 -2.69288 3.22441
-1.36307 -2.67953 3.22441
-1.50949 -2.50105 3.14338
-1.52116 -2.32299 3.06711
-1.48368 -2.89503 3.31231
-1.63134 -2.32668 3.06711
-1.5317 -2.16214 2.9935
-1.38669 -1.13737 0.859762
-1.51125 -1.08949 0.147336
-1.46871 -1.12035 0.510736
-1.48218 -1.08069 0.147336
-1.43771 -1.10872 0.510736
-1.45374 -1.07002 0.147336
-1.40754 -1.09509 0.510736
-1.52054 -1.05481 -0.225647
-1.46749 -1.03684 -0.225647
-1.42607 -1.05752 0.147336
-1.41725 -1.01213 -0.225647
-1.5281 -1.0266 -0.603423
-1.50311 -1.01903 -0.603423
-1.49372 -1.04668 -0.225647
-1.47867 -1.00986 -0.603423
-1.44196 -1.02531 -0.225647
-1.48821 -1.17547 0.859762
-1.47484 -1.22535 1.18962
-1.43696 -1.21388 1.18962
-1.4605 -1.27888 1.49552
-1.41914 -1.26636 1.49552
-1.3808 -1.37931 2.01628
-1.42963 -1.3941 2.01628
-1.45356 -1.16497 0.859762
-1.41967 -1.15226 0.859762
-1.3787 -1.25118 1.49552
-1.40035 -1.32173 1.77267
-1.33304 -1.36139 2.01628
-1.39991 -1.19997 1.18962
-1.36385 -1.18369 1.18962
-1.35631 -1.30521 1.77267
-1.33933 -1.23341 1.49552
-1.31346 -1.28586 1.77267
-1.24158 -1.3164 2.01628
-1.52346 -1.1837 0.859762
-1.51339 -1.23435 1.18962
-1.55917 -1.18964 0.859762
-1.5918 -1.24477 1.18962
-1.55243 -1.24084 1.18962
-1.54519 -1.2958 1.49552
-1.58817 -1.30008 1.49552
-1.50258 -1.28871 1.49552
-1.58435 -1.35845 1.77267
-1.63134 -1.36002 1.77267
-1.44536 -1.33537 1.77267
-1.49117 -1.34607 1.77267
-1.52963 -1.41407 2.01628
-1.53756 -1.35378 1.77267
-1.53265 -1.13748 0.510736
-1.50041 -1.12995 0.510736
-1.54082 -1.0964 0.147336
-1.55353 -1.03254 -0.603423
-1.57078 -1.10138 0.147336
-1.54783 -1.06118 -0.225647
-1.59826 -1.1462 0.510736
-1.56532 -1.14291 0.510736
-1.57547 -1.06577 -0.225647
-1.59518 -1.19323 0.859762
-1.63134 -1.1473 0.510736
-1.60099 -1.1044 0.147336
-1.63134 -1.10541 0.147336
-1.60334 -1.06856 -0.225647
-0.440869 -4.14805 5.13263
-0.213928 -4.0629 5.13263
0.220693 -3.84912 5.13263
0.152432 -3.73089 4.91463
-0.638049 -4.34831 5.38023
-0.162418 -4.18725 5.38023
0.006931 -3.96317 5.13263
-0.397607 -4.27548 5.38023
-0.354835 -4.40147 5.66062
-0.111493 -4.31018 5.66062
0.066467 -4.08389 5.38023
-0.569474 -4.60424 5.97702
-0.312433 -4.52638 5.97702
-0.061007 -4.43205 5.97702
0.125327 -4.20324 5.66062
-0.708206 -4.08648 4.91463
-0.744126 -3.95243 4.72303
-0.780738 -3.81579 4.55463
-0.574837 -3.75342 4.55463
-0.818142 -3.6762 4.40623
-0.621295 -3.61657 4.40623
-0.484747 -4.0188 4.91463
-0.26617 -3.93679 4.91463
-0.529362 -3.88738 4.72303
-0.428749 -3.54433 4.40623
-0.114848 -3.71625 4.72303
-0.31929 -3.80856 4.72303
-0.373434 -3.67786 4.55463
-0.241363 -3.45972 4.40623
-0.306819 -3.32699 4.27463
-0.053452 -3.84074 4.91463
0.083024 -3.61067 4.72303
-0.177429 -3.58935 4.55463
-0.133996 -3.23479 4.27463
-0.935571 -4.1396 4.91463
-1.40719 -4.06253 4.72303
-0.990239 -3.86473 4.55463
-0.962644 -4.00347 4.72303
-1.18398 -4.04026 4.72303
-1.20244 -3.89999 4.55463
-1.01843 -3.72298 4.40623
-1.41644 -3.92134 4.55463
-1.63134 -3.92854 4.55463
-1.2213 -3.7567 4.40623
-1.42589 -3.77711 4.40623
-0.67288 -4.21832 5.13263
-0.908946 -4.27347 5.13263
-0.856739 -4.53596 5.66062
-0.603613 -4.47683 5.66062
-1.16586 -4.17787 4.91463
-1.14805 -4.3132 5.13263
-0.882693 -4.40546 5.38023
-1.11313 -4.57857 5.66062
-1.39811 -4.20104 4.91463
-1.38919 -4.33726 5.13263
-1.38039 -4.47158 5.38023
-1.13049 -4.44664 5.38023
-1.37169 -4.60437 5.66062
-1.36306 -4.73601 5.97702
-1.63134 -4.20885 4.91463
-1.37989 -1.2483 -4.49659
-1.35367 -1.31159 -4.7109
-1.31041 -1.29205 -4.7109
-1.26853 -1.26971 -4.7109
-1.39813 -1.32827 -4.7109
-1.37466 -1.39741 -4.90305
-1.32572 -1.37905 -4.90305
-1.27811 -1.35755 -4.90305
-1.34999 -1.47007 -5.07228
-1.23202 -1.33296 -4.90305
-1.38421 -1.56361 -5.21783
-1.32438 -1.54549 -5.21783
-1.26587 -1.52354 -5.21783
-1.29636 -1.44995 -5.07228
-1.24416 -1.42638 -5.07228
-1.20892 -1.49783 -5.21783
-1.47766 -1.21483 -4.2609
-1.44046 -1.20357 -4.2609
-1.45881 -1.14951 -4.00458
-1.47494 -1.10199 -3.7284
-1.50542 -1.11123 -3.7284
-1.51642 -1.07019 -3.43313
-1.42015 -1.2634 -4.49659
-1.44513 -1.09081 -3.7284
-1.4886 -1.06177 -3.43313
-1.36866 -1.17393 -4.2609
-1.40408 -1.18992 -4.2609
-1.42592 -1.13717 -4.00458
-1.46139 -1.05156 -3.43313
-1.34071 -1.23061 -4.49659
-1.30279 -1.21038 -4.49659
-1.39392 -1.12272 -4.00458
-1.36294 -1.10619 -4.00458
-1.38804 -1.06272 -3.7284
-1.41612 -1.07771 -3.7284
-1.46131 -1.27587 -4.49659
-1.51551 -1.22368 -4.2609
-1.5456 -1.2927 -4.49659
-1.49244 -1.1597 -4.00458
-1.5613 -1.17345 -4.00458
-1.55385 -1.23005 -4.2609
-1.59251 -1.2339 -4.2609
-1.63134 -1.17811 -4.00458
-1.53644 -1.11847 -3.7284
-1.52665 -1.16769 -4.00458
-1.56785 -1.12369 -3.7284
-1.59624 -1.17693 -4.00458
-1.54472 -1.0768 -3.43313
-1.57339 -1.08157 -3.43313
-1.59952 -1.12685 -3.7284
-1.63134 -1.12792 -3.7284
-1.50318 -1.28565 -4.49659
-1.44358 -1.34204 -4.7109
-1.48982 -1.35284 -4.7109
-1.47558 -1.42445 -4.90305
-1.42468 -1.41256 -4.90305
-1.40482 -1.48668 -5.07228
-1.53666 -1.36062 -4.7109
-1.46061 -1.49971 -5.07228
-1.50672 -1.58808 -5.21783
-1.44507 -1.57783 -5.21783
-1.58838 -1.29697 -4.49659
-1.5839 -1.36534 -4.7109
-1.57913 -1.43821 -4.90305
-1.52713 -1.43302 -4.90305
-1.51712 -1.5091 -5.07228
-1.57411 -1.51479 -5.07228
-1.63134 -1.36693 -4.7109
-1.63134 -1.5167 -5.07228
-1.63134 -1.59637 -5.21783
-1.5689 -1.59428 -5.21783
-0.982064 -3.05785 -5.94295
-0.825227 -3.01092 -5.94272
-0.767506 -3.17601 -5.99093
-0.671823 -2.95394 -5.94248
-0.603365 -3.11558 -5.99046
-0.522528 -2.88706 -5.94225
-0.28898 -2.96294 -5.9896
-0.935326 -3.2257 -5.9914
-0.890164 -3.38438 -6.04269
-0.537566 -3.269 -6.04104
-0.367889 -3.19426 -6.04024
-0.443618 -3.04452 -5.99
-0.847716 -3.52898 -6.09717
-0.711907 -3.33239 -6.04187
-0.659878 -3.47529 -6.09586
-0.124275 -3.2421 -6.09211
-0.203622 -3.10824 -6.03954
-0.809124 -3.65459 -6.15517
-0.612869 -3.59995 -6.1532
-0.476179 -3.40959 -6.09452
-0.297388 -3.33187 -6.09324
-1.02924 -2.88575 -5.89699
-0.883621 -2.84187 -5.8969
-0.94124 -2.67362 -5.85315
-1.12033 -2.5484 -5.81116
-1.04836 -2.35858 -5.77061
-0.875641 -2.46554 -5.81116
-0.996636 -2.51094 -5.81116
-0.741189 -2.78866 -5.8968
-0.602574 -2.72628 -5.89671
-0.809712 -2.62433 -5.85313
-0.68171 -2.56659 -5.85311
-0.557819 -2.50053 -5.85309
-0.75789 -2.41237 -5.81116
-0.829069 -2.26804 -5.77061
-1.46641 -3.13701 -5.94345
-1.1774 -2.92015 -5.89708
-1.21253 -2.7462 -5.8532
-1.35111 -2.76919 -5.85322
-1.32749 -2.94492 -5.89714
-1.49087 -2.7831 -5.85323
-1.47886 -2.9599 -5.89719
-1.07571 -2.71429 -5.85318
-1.24619 -2.57781 -5.81116
-1.50223 -2.61182 -5.81116
-1.16198 -2.39299 -5.77061
-1.27758 -2.42 -5.77061
-1.37367 -2.59899 -5.81116
-1.39467 -2.43946 -5.77061
-1.51275 -2.45124 -5.77061
-1.63134 -2.45521 -5.77061
-1.03892 -3.5707 -6.09835
-1.14166 -3.09461 -5.94316
-1.30333 -3.12104 -5.94334
-1.10611 -3.26454 -5.99183
-1.25544 -3.45395 -6.04404
-1.07159 -3.42492 -6.04343
-1.27914 -3.29243 -5.99217
-1.23273 -3.60047 -6.09932
-1.42837 -3.61831 -6.09997
-1.63022 -3.14238 -5.9435
-1.45371 -3.30925 -5.99241
-1.44096 -3.47141 -6.04445
-1.62742 -3.47725 -6.0446
-1.41612 -3.74475 -6.15938
-0.443953 -5.07269 11.1204
-0.156527 -4.98563 11.1204
0.093523 -4.80509 11.4834
-0.485489 -4.91768 11.8101
-0.182644 -4.90869 11.4834
0.327235 -4.61265 11.8101
0.362289 -4.68372 11.4834
0.58279 -4.47629 11.8101
-0.208117 -4.83366 11.8101
-0.230701 -4.76714 12.095
0.063195 -4.73187 11.8101
0.015526 -4.6168 12.3326
0.036306 -4.66697 12.095
0.296156 -4.54963 12.095
0.520505 -4.36841 12.3326
0.547656 -4.41544 12.095
-0.132007 -5.05786 10.7266
-0.424212 -5.14637 10.7266
-0.111328 -5.11877 10.3075
-0.407563 -5.2085 10.3075
-0.395812 -5.25235 9.8686
-0.096733 -5.16176 9.8686
0.195812 -5.05201 9.8686
0.203275 -5.07002 9.4154
-0.090465 -5.18022 9.4154
0.12462 -4.88015 11.1204
0.153814 -4.95062 10.7266
0.431973 -4.82502 10.7266
0.178435 -5.01006 10.3075
0.39823 -4.7566 11.1204
0.701195 -4.68138 10.7266
0.460431 -4.88272 10.3075
0.756071 -4.77643 9.8686
0.480516 -4.92345 9.8686
-1.63134 -5.23009 11.1204
-0.708976 -5.27891 10.3075
-0.721524 -5.21582 10.7266
-1.02267 -5.26586 10.7266
-1.01427 -5.32965 10.3075
-1.32216 -5.36036 10.3075
-1.32636 -5.29616 10.7266
-0.700119 -5.32344 9.8686
-0.696316 -5.34256 9.4154
-1.00835 -5.37466 9.8686
-1.31919 -5.40568 9.8686
-1.63134 -5.41613 9.8686
-0.736403 -5.14101 11.1204
-0.46498 -4.99422 11.4834
-0.767708 -4.9836 11.8101
-0.781412 -4.9147 12.095
-0.503671 -4.84982 12.095
-0.517722 -4.79738 12.3326
-1.04322 -5.10968 11.4834
-0.752251 -5.06132 11.4834
-1.05356 -5.03111 11.8101
-1.03262 -5.19023 11.1204
-1.34184 -5.05987 11.8101
-1.34644 -4.98976 12.095
-1.06273 -4.96145 12.095
-1.33135 -5.22004 11.1204
-1.63134 -5.14883 11.4834
-1.33666 -5.13896 11.4834
-1.63134 -4.9993 12.095
-0.771134 -3.6898 -6.66362
-0.804514 -3.59285 -6.65663
-0.571614 -3.64279 -6.65776
-0.424531 -3.48369 -6.64632
-0.186812 -3.50866 -6.64582
-0.241511 -3.40933 -6.64123
-0.842848 -3.47807 -6.64263
-0.612266 -3.54501 -6.65164
-0.305454 -3.29197 -6.62944
-0.659326 -3.42946 -6.63849
-0.48024 -3.36695 -6.63387
-0.772173 -3.14113 -6.59357
-0.712671 -3.29516 -6.61892
-0.543813 -3.23137 -6.61483
-0.615236 -3.07607 -6.58973
-0.37872 -3.15573 -6.61088
-0.537497 -3.72379 -6.65622
-0.720144 -3.8347 -6.65377
-0.3767 -3.58251 -6.65165
-0.304732 -3.72997 -6.63883
-0.51004 -3.78901 -6.64639
-0.489368 -3.83941 -6.62766
-0.336762 -3.6643 -6.64933
-0.104828 -3.65653 -6.63161
-0.077383 -3.70674 -6.61195
-0.280625 -3.78043 -6.61962
-0.002371 -3.42095 -6.64078
-0.141277 -3.59078 -6.64276
-0.058865 -3.74226 -6.58331
-0.742935 -3.77004 -6.6629
-0.952528 -3.80381 -6.66887
-1.16561 -3.82635 -6.67368
-1.3919 -3.75861 -6.67541
-1.38151 -3.83888 -6.67692
-0.934437 -3.86813 -6.66042
-0.920861 -3.91813 -6.64263
-1.15228 -3.89048 -6.66584
-1.14236 -3.9403 -6.64843
-1.37304 -3.90294 -6.6695
-1.36686 -3.95262 -6.65236
-1.59608 -3.9067 -6.67089
-0.702989 -3.88491 -6.63552
-0.912094 -3.95518 -6.61473
-1.36329 -3.98977 -6.62469
-1.59283 -3.99347 -6.62622
-1.59373 -3.95633 -6.65385
-1.00108 -3.62678 -6.66073
-1.03094 -3.51135 -6.64566
-0.885908 -3.34434 -6.62234
-0.974839 -3.72382 -6.66872
-1.20114 -3.64865 -6.66382
-1.22267 -3.53184 -6.64768
-1.24628 -3.39423 -6.62512
-1.06414 -3.37616 -6.62427
-1.27164 -3.23419 -6.59693
-1.10039 -3.21985 -6.59731
-1.182 -3.74628 -6.67275
-1.40388 -3.6603 -6.66577
-1.43124 -3.40217 -6.62531
-1.44592 -3.23869 -6.5961
-1.6038 -3.76225 -6.67639
-1.6085 -3.66356 -6.66646
-1.41711 -3.54209 -6.6488
-1.61791 -3.40361 -6.62524
-0.015615 -5.40071 10.7734
0.292393 -5.28515 10.7734
-0.330504 -5.49609 10.7734
-0.312692 -5.56256 10.353
0.592147 -5.1498 10.7734
0.006508 -5.46587 10.353
0.318734 -5.34874 10.353
0.337465 -5.39395 9.9078
0.622591 -5.21153 10.353
-0.300026 -5.60983 9.9078
0.029983 -5.53502 9.4422
0.02224 -5.51222 9.9078
0.654897 -5.27703 9.4422
0.644241 -5.25543 9.9078
0.941159 -5.09701 9.9078
-0.352174 -5.41521 11.1646
-0.042531 -5.32142 11.1646
-0.104353 -5.13931 11.8418
-0.401947 -5.22946 11.8418
-0.136063 -5.04591 12.119
-0.451721 -5.0437 12.3494
-0.072643 -5.23272 11.5222
0.148984 -4.93897 12.119
0.260346 -5.20779 11.1646
0.555105 -5.07469 11.1646
0.224494 -5.12124 11.5222
0.513667 -4.99066 11.5222
0.186739 -5.03011 11.8418
0.470029 -4.90218 11.8418
0.426391 -4.8137 12.119
0.793548 -4.84134 11.5222
0.694885 -4.67045 12.119
0.648039 -4.58931 12.3494
0.384953 -4.72968 12.3494
-0.685501 -5.39693 11.5222
-1.31429 -5.48046 11.5222
-1.63134 -5.49108 11.5222
-0.376418 -5.32473 11.5222
-0.998567 -5.44896 11.5222
-1.01144 -5.35116 11.8418
-1.32074 -5.38202 11.8418
-0.704743 -5.30019 11.8418
-1.63134 -5.29376 12.119
-0.427477 -5.13418 12.119
-0.723985 -5.20344 12.119
-1.02431 -5.25335 12.119
-1.33331 -5.19008 12.3494
-1.32719 -5.28357 12.119
-0.667229 -5.48881 11.1646
-0.627925 -5.68643 9.9078
-0.293792 -5.6331 9.4422
-0.650896 -5.57093 10.7734
-0.975416 -5.62486 10.7734
-0.966435 -5.6931 10.353
-0.637471 -5.63843 10.353
-0.960048 -5.74162 9.9078
-0.986343 -5.54184 11.1646
-1.30816 -5.57395 11.1646
-1.30269 -5.65752 10.7734
-1.29819 -5.7262 10.353
-0.956905 -5.7655 9.4422
-1.63134 -5.66852 10.7734
-1.63134 -5.73736 10.353
-1.29499 -5.77504 9.9078
-0.445714 -4.13377 4.29976
-0.387724 -4.30459 4.52296
-0.219696 -4.04898 4.29976
-0.150652 -4.21565 4.52296
0.080066 -4.11147 4.52296
0.000264 -3.94966 4.29976
-0.082868 -3.78109 4.10256
0.213156 -3.83607 4.29976
-0.725416 -4.02225 4.10256
-0.568889 -3.77094 3.92849
-0.506123 -3.95583 4.10256
-0.291621 -3.87536 4.10256
-0.366352 -3.69496 3.92849
0.119177 -3.67329 4.10256
-0.828331 -3.63817 3.77469
-0.633951 -3.57929 3.77469
-0.443817 -3.50796 3.77469
-0.169245 -3.60595 3.92849
-0.258779 -3.4244 3.77469
-0.279254 -4.62411 5.05887
-0.228898 -4.77245 5.37733
-0.332217 -4.4681 4.77504
-0.084563 -4.37519 4.77504
0.038452 -4.67214 5.37733
-0.18121 -4.91292 5.73327
0.156453 -4.26636 4.77504
-0.021504 -4.52741 5.05887
0.47212 -4.28461 5.05887
0.229338 -4.41414 5.05887
0.298636 -4.55466 5.37733
0.624648 -4.5488 5.73327
-0.843014 -4.60497 4.77504
-1.10394 -4.64833 4.77504
-1.37838 -4.50226 4.52296
-1.63134 -4.51073 4.52296
-0.585403 -4.54479 4.77504
-0.542762 -4.70393 5.05887
-0.810875 -4.76656 5.05887
-1.36709 -4.67459 4.77504
-1.35631 -4.83902 5.05887
-1.63134 -4.68344 4.77504
-1.062 -4.96701 5.37733
-1.08244 -4.81169 5.05887
-1.34607 -4.99535 5.37733
-1.63134 -5.00491 5.37733
-0.502219 -4.85524 5.37733
-0.463826 -4.99852 5.73327
-0.780318 -4.9202 5.37733
-0.630092 -4.37801 4.52296
-0.876696 -4.43561 4.52296
-0.911885 -4.25869 4.29976
-0.67678 -4.20377 4.29976
-0.77595 -3.83366 3.92849
-0.986629 -3.88287 3.92849
-0.948542 -4.07438 4.10256
-1.17454 -4.11193 4.10256
-1.20002 -3.91834 3.92849
-1.02611 -3.68437 3.77469
-1.12648 -4.47712 4.52296
-1.15002 -4.29826 4.29976
-1.39017 -4.32222 4.29976
-1.40246 -4.13468 4.10256
-1.63134 -4.14234 4.10256
-1.41523 -3.93981 3.92849
-1.35638 -1.66748 2.656
-1.37747 -1.58875 2.53656
-1.31602 -1.57013 2.53656
-1.25591 -1.54758 2.53656
-1.33941 -1.50125 2.39336
-1.28375 -1.48037 2.39336
-1.19741 -1.52117 2.53656
-1.17718 -1.42794 2.39336
-1.36074 -1.43839 2.22156
-1.22959 -1.45591 2.39336
-1.30916 -1.41904 2.22156
-1.28656 -1.3404 2.01628
-1.25896 -1.39637 2.22156
-1.21037 -1.37045 2.22156
-1.28982 -1.64732 2.656
-1.26003 -1.73506 2.75655
-1.22589 -1.83563 2.84308
-1.30491 -1.85957 2.84308
-1.2733 -1.97754 2.92044
-1.18663 -1.95128 2.92044
-1.14148 -2.08428 2.9935
-1.23695 -2.1132 2.9935
-1.18925 -1.70851 2.75655
-1.1486 -1.80663 2.84308
-1.04809 -2.04925 2.9935
-1.22471 -1.62289 2.656
-1.07338 -1.77267 2.84308
-1.01935 -1.88222 2.92044
-1.10185 -1.91948 2.92044
-0.957214 -2.00821 2.9935
-1.16135 -1.59428 2.656
-1.12036 -1.6774 2.75655
-1.4241 -1.6833 2.656
-1.40602 -1.77418 2.75655
-1.49269 -1.6947 2.656
-1.4806 -1.78658 2.75655
-1.55581 -1.79408 2.75655
-1.56187 -1.7016 2.656
-1.63134 -1.70393 2.656
-1.33239 -1.75698 2.75655
-1.46674 -1.89188 2.84308
-1.63134 -1.79661 2.75655
-1.36148 -1.99813 2.92044
-1.38531 -1.87835 2.84308
-1.54886 -1.90007 2.84308
-1.63134 -1.90284 2.84308
-1.33408 -2.13589 2.9935
-1.43247 -2.15224 2.9935
-1.4508 -2.01298 2.92044
-1.54088 -2.02197 2.92044
-1.63134 -2.16548 2.9935
-1.45419 -1.532 2.39336
-1.3963 -1.51848 2.39336
-1.46714 -1.4669 2.22156
-1.41348 -1.45436 2.22156
-1.44 -1.60335 2.53656
-1.50333 -1.61388 2.53656
-1.47931 -1.4057 2.01628
-1.5672 -1.62025 2.53656
-1.57195 -1.54764 2.39336
-1.51282 -1.54174 2.39336
-1.52149 -1.47593 2.22156
-1.58037 -1.41913 2.01628
-1.63134 -1.6224 2.53656
-1.63134 -1.54963 2.39336
-1.5763 -1.4814 2.22156
-0.869657 -2.88572 3.8724
-0.512599 -2.90996 3.95657
-0.976583 -3.08489 3.95674
-0.818227 -3.03677 3.9567
-0.663353 -2.97835 3.95664
-0.442622 -3.05169 4.05102
-0.767501 -3.18597 4.05105
-0.602859 -3.12412 4.05103
-0.209905 -3.10331 4.15663
-0.895721 -3.38667 4.15663
-0.66886 -3.47646 4.27463
-0.717653 -3.33273 4.15663
-0.485381 -3.40762 4.27463
-0.543476 -3.26738 4.15663
-0.373967 -3.19084 4.15663
-0.973927 -2.58043 3.72922
-1.10108 -2.62027 3.72951
-0.786974 -2.68133 3.79664
-0.921615 -2.73341 3.79697
-1.02642 -2.42737 3.66797
-0.724784 -2.83058 3.87224
-0.583716 -2.76608 3.87207
-0.655787 -2.62048 3.7963
-0.728629 -2.47359 3.72806
-0.84975 -2.5311 3.72864
-0.802057 -2.32583 3.66611
-0.912933 -2.38041 3.66704
-0.875888 -2.17764 3.60924
-0.97635 -2.22976 3.61064
-0.446966 -2.6927 3.87199
-0.528386 -2.55168 3.79614
-0.610649 -2.4092 3.72776
-1.01782 -2.93098 3.87249
-1.19993 -2.80798 3.79697
-1.34257 -2.8302 3.79664
-1.3218 -2.99055 3.87224
-1.05938 -2.7759 3.79714
-1.36332 -2.66871 3.72864
-1.4866 -2.8431 3.7963
-1.49697 -2.67947 3.72806
-1.63134 -2.68269 3.72776
-1.63134 -2.84721 3.79614
-1.14275 -2.46474 3.66844
-1.26219 -2.49054 3.66797
-1.23111 -2.64934 3.72922
-1.50725 -2.51479 3.66611
-1.293 -2.33218 3.61204
-1.38394 -2.50661 3.66704
-1.40435 -2.34444 3.61064
-1.63134 -2.51691 3.66564
-0.935826 -3.23699 4.05106
-1.10711 -3.27697 4.05105
-0.856437 -3.53328 4.27463
-1.16877 -2.96586 3.8724
-1.13778 -3.12239 3.9567
-1.28062 -3.30573 4.05103
-1.26042 -3.45949 4.15663
-1.0769 -3.42899 4.15663
-1.04729 -3.57786 4.27463
-1.30112 -3.14924 3.95664
-1.46587 -3.16538 3.95657
-1.45561 -3.32312 4.05102
-1.24061 -3.60999 4.27463
-1.47622 -3.00522 3.87207
-1.63134 -3.01006 3.87199
-1.63134 -3.17078 3.95654
-1.63134 -3.32896 4.05101
-1.44549 -3.47795 4.15663
-1.63134 -3.48418 4.15663
-1.63134 -3.636 4.27463
-1.43556 -3.62944 4.27463
-1.51335 -0.988857 -2.44647
-1.51634 -0.980057 -2.09161
-1.49086 -0.980419 -2.44647
-1.49442 -0.971833 -2.09161
-1.45243 -0.951182 -2.09161
-1.46897 -0.970535 -2.44647
-1.52521 -1.03737 -3.11952
-1.50776 -1.00532 -2.78987
-1.4842 -0.996487 -2.78987
-1.4744 -1.02016 -3.11952
-1.46128 -0.986134 -2.78987
-1.43909 -0.974295 -2.78987
-1.49952 -1.02959 -3.11952
-1.44994 -1.00912 -3.11952
-1.43491 -1.0396 -3.43313
-1.42628 -0.996489 -3.11952
-1.51677 -0.9788 -1.72758
-1.53909 -0.985563 -1.72758
-1.49493 -0.970606 -1.72758
-1.51468 -0.98496 -1.35668
-1.49244 -0.976616 -1.35668
-1.51011 -0.99841 -0.981198
-1.47308 -0.962199 -2.09161
-1.47367 -0.961008 -1.72758
-1.487 -0.98974 -0.981198
-1.45488 -0.999114 -0.603423
-1.4531 -0.950032 -1.72758
-1.47079 -0.966843 -1.35668
-1.44274 -0.967971 -0.981198
-1.46451 -0.979585 -0.981198
-1.43185 -0.98683 -0.603423
-1.53875 -0.986846 -2.09161
-1.56181 -0.99087 -1.72758
-1.56155 -0.992172 -2.09161
-1.58465 -0.996011 -2.09161
-1.58482 -0.994695 -1.72758
-1.60794 -0.998335 -2.09161
-1.56054 -0.99725 -1.35668
-1.60803 -0.99701 -1.72758
-1.60761 -1.0035 -1.35668
-1.63134 -1.0043 -1.35668
-1.63134 -0.997791 -1.72758
-1.53741 -0.991846 -1.35668
-1.55777 -1.01118 -0.981198
-1.58398 -1.00114 -1.35668
-1.60668 -1.01768 -0.981198
-1.53373 -1.00557 -0.981198
-1.58212 -1.01523 -0.981198
-1.57928 -1.03682 -0.603423
-1.60525 -1.03941 -0.603423
-1.63134 -1.04028 -0.603423
-1.53635 -0.995822 -2.44647
-1.53184 -1.01262 -2.78987
-1.55635 -1.01834 -2.78987
-1.55974 -1.00129 -2.44647
-1.58117 -1.02247 -2.78987
-1.55135 -1.04347 -3.11952
-1.57782 -1.04787 -3.11952
-1.58344 -1.00522 -2.44647
-1.6062 -1.02497 -2.78987
-1.6023 -1.08446 -3.43313
-1.60734 -1.00761 -2.44647
-1.60452 -1.05054 -3.11952
-1.20959 -1.88365 -5.58755
-1.00337 -1.91461 -5.64283
-1.05094 -1.81816 -5.58755
-1.17502 -1.98547 -5.64283
-1.08803 -1.95284 -5.64283
-0.862283 -1.97335 -5.68964
-1.09496 -2.2213 -5.73116
-1.137 -2.09748 -5.68964
-1.04276 -2.06213 -5.68964
-0.951047 -2.02071 -5.68964
-0.937224 -2.31688 -5.77061
-0.99271 -2.18294 -5.73116
-0.8932 -2.13801 -5.73116
-1.24125 -1.79037 -5.52061
-1.31728 -1.8134 -5.52061
-1.16689 -1.76248 -5.52061
-1.27057 -1.70401 -5.43881
-1.2018 -1.67821 -5.43881
-1.2981 -1.62293 -5.33894
-1.12919 -1.85349 -5.58755
-1.13487 -1.64799 -5.43881
-1.23457 -1.5991 -5.33894
-1.09452 -1.7298 -5.52061
-1.07009 -1.61343 -5.43881
-1.11291 -1.53926 -5.33894
-1.17275 -1.57118 -5.33894
-1.15381 -1.46842 -5.21783
-1.37541 -1.92808 -5.58755
-1.47298 -1.84449 -5.52061
-1.54555 -1.95069 -5.58755
-1.34088 -1.72531 -5.43881
-1.39463 -1.83147 -5.52061
-1.55199 -1.85238 -5.52061
-1.36304 -1.6426 -5.33894
-1.41242 -1.74202 -5.43881
-1.48488 -1.75406 -5.43881
-1.55795 -1.76135 -5.43881
-1.63134 -1.67817 -5.33894
-1.42912 -1.65804 -5.33894
-1.49605 -1.66916 -5.33894
-1.56355 -1.6759 -5.33894
-1.29178 -1.90855 -5.58755
-1.35444 -2.03355 -5.64283
-1.26395 -2.01241 -5.64283
-1.23334 -2.12666 -5.68964
-1.19949 -2.25297 -5.73116
-1.46012 -1.94216 -5.58755
-1.44609 -2.04878 -5.64283
-1.33136 -2.14956 -5.68964
-1.43065 -2.16606 -5.68964
-1.30586 -2.27781 -5.73116
-1.41359 -2.29572 -5.73116
-1.52223 -2.30656 -5.73116
-1.53852 -2.058 -5.64283
-1.53078 -2.17605 -5.68964
-1.63134 -2.17942 -5.68964
-0.445289 -5.06771 7.57461
-0.42253 -5.15264 8.02701
-0.129918 -5.06401 8.02701
0.156301 -4.95663 8.02701
0.122644 -4.87538 7.57461
0.395947 -4.75197 7.57461
-0.405163 -5.21746 8.4886
0.434848 -4.83085 8.02701
0.704445 -4.68701 8.02701
-0.394229 -5.25826 8.9534
-0.108348 -5.12755 8.4886
-0.094766 -5.16755 8.9534
0.181983 -5.01863 8.4886
0.464532 -4.89104 8.4886
0.738002 -4.74513 8.4886
0.198153 -5.05766 8.9534
0.489142 -4.94094 9.4154
0.483222 -4.92894 8.9534
0.765823 -4.79332 9.4154
0.759131 -4.78173 8.9534
-0.158186 -4.98074 7.57461
-0.191862 -4.88154 7.13741
-0.270276 -4.65056 6.33262
0.082548 -4.77859 7.13741
-0.229656 -4.77021 6.72142
0.349603 -4.658 7.13741
0.03755 -4.66997 6.72142
-0.010814 -4.55322 6.33262
0.297594 -4.55254 6.72142
0.241694 -4.4392 6.33262
0.183679 -4.32156 5.97702
-0.757845 -5.0332 7.13741
-0.73741 -5.13594 7.57461
-1.04697 -5.08124 7.13741
-1.33854 -5.11034 7.13741
-1.33169 -5.21489 7.57461
-0.472402 -4.96652 7.13741
-1.63134 -5.12014 7.13741
-0.50283 -4.85296 6.72142
-0.535534 -4.73091 6.33262
-0.805427 -4.79395 6.33262
-0.780778 -4.91789 6.72142
-1.06231 -4.96467 6.72142
-1.35449 -4.86689 6.33262
-1.34623 -4.993 6.72142
-0.831009 -4.66533 5.97702
-1.0788 -4.83938 6.33262
-1.09591 -4.70935 5.97702
-1.63134 -4.745 5.97702
-1.63134 -4.87616 6.33262
-0.390766 -5.27119 9.4154
-0.720256 -5.22219 8.02701
-0.707167 -5.288 8.4886
-1.00755 -5.38073 8.9534
-0.698926 -5.32944 8.9534
-1.03329 -5.18512 7.57461
-1.02182 -5.27231 8.02701
-1.01306 -5.33884 8.4886
-1.0058 -5.39399 9.4154
-1.63134 -5.31288 8.02701
-1.32594 -5.30265 8.02701
-1.32155 -5.36962 8.4886
-1.63134 -5.37999 8.4886
-1.31879 -5.41178 8.9534
-1.31791 -5.42514 9.4154
-1.77446 -1.17547 0.859762
-1.6675 -1.19323 0.859762
-1.66441 -1.1462 0.510736
-1.73002 -1.13748 0.510736
-1.69735 -1.14291 0.510736
-1.75142 -1.08949 0.147336
-1.72185 -1.0964 0.147336
-1.71484 -1.06118 -0.225647
-1.69189 -1.10138 0.147336
-1.66167 -1.1044 0.147336
-1.70914 -1.03254 -0.603423
-1.6872 -1.06577 -0.225647
-1.65742 -1.03941 -0.603423
-1.65933 -1.06856 -0.225647
-1.63134 -1.06949 -0.225647
-1.74928 -1.23435 1.18962
-1.78336 -1.4057 2.01628
-1.73921 -1.1837 0.859762
-1.71024 -1.24084 1.18962
-1.7601 -1.28871 1.49552
-1.71748 -1.2958 1.49552
-1.7715 -1.34607 1.77267
-1.7035 -1.18964 0.859762
-1.67087 -1.24477 1.18962
-1.6745 -1.30008 1.49552
-1.67832 -1.35845 1.77267
-1.72511 -1.35378 1.77267
-1.73304 -1.41407 2.01628
-1.63134 -1.19444 0.859762
-1.63134 -1.24609 1.18962
-1.63134 -1.30153 1.49552
-1.80911 -1.16498 0.859762
-1.82571 -1.21388 1.18962
-1.86276 -1.19997 1.18962
-1.9079 -1.12034 0.859762
-1.78783 -1.22535 1.18962
-1.80217 -1.27889 1.49552
-1.92334 -1.23341 1.49552
-1.89882 -1.18369 1.18962
-1.81731 -1.33537 1.77267
-1.84353 -1.26636 1.49552
-1.88398 -1.25118 1.49552
-1.90636 -1.30521 1.77267
-1.96144 -1.21308 1.49552
-1.83304 -1.3941 2.01628
-1.86232 -1.32173 1.77267
-1.88187 -1.37931 2.01628
-1.92963 -1.36139 2.01628
-1.97611 -1.3404 2.01628
-1.94921 -1.28586 1.77267
-1.76226 -1.12995 0.510736
-1.78049 -1.08069 0.147336
-1.74213 -1.05481 -0.225647
-1.73457 -1.0266 -0.603423
-1.82496 -1.10872 0.510736
-1.79396 -1.12035 0.510736
-1.76895 -1.04668 -0.225647
-1.79518 -1.03684 -0.225647
-1.75956 -1.01903 -0.603423
-1.843 -1.15226 0.859762
-1.87598 -1.13737 0.859762
-1.8366 -1.05752 0.147336
-1.80893 -1.07002 0.147336
-1.82071 -1.02531 -0.225647
-1.78401 -1.00986 -0.603423
-1.85513 -1.09509 0.510736
-2.3271 -4.1396 4.91463
-2.09681 -4.17787 4.91463
-1.86456 -4.20104 4.91463
-2.62462 -4.34831 5.38023
-2.35373 -4.27347 5.13263
-2.37998 -4.40546 5.38023
-2.13218 -4.44664 5.38023
-2.11462 -4.3132 5.13263
-1.87348 -4.33726 5.13263
-1.88228 -4.47158 5.38023
-1.63134 -4.34537 5.13263
-2.40593 -4.53596 5.66062
-2.14955 -4.57857 5.66062
-1.89098 -4.60437 5.66062
-1.63134 -4.61306 5.66062
-1.63134 -4.47998 5.38023
-1.89961 -4.73601 5.97702
-2.55447 -4.08648 4.91463
-2.51855 -3.95243 4.72303
-2.27243 -3.86473 4.55463
-2.24424 -3.72298 4.40623
-2.30003 -4.00347 4.72303
-2.0787 -4.04026 4.72303
-1.85548 -4.06253 4.72303
-2.06023 -3.89999 4.55463
-1.83678 -3.77711 4.40623
-2.04137 -3.7567 4.40623
-2.02206 -3.60999 4.27463
-1.63134 -4.07004 4.72303
-1.84624 -3.92134 4.55463
-1.63134 -3.78399 4.40623
-1.82711 -3.62944 4.27463
-2.77793 -4.0188 4.91463
-2.94338 -3.80856 4.72303
-3.14782 -3.71625 4.72303
-2.73331 -3.88738 4.72303
-3.08524 -3.58935 4.55463
-3.27495 -3.48814 4.55463
-3.3457 -3.61067 4.72303
-2.48193 -3.81579 4.55463
-2.44453 -3.6762 4.40623
-2.64138 -3.61657 4.40623
-2.68783 -3.75342 4.55463
-2.88924 -3.67786 4.55463
-2.83392 -3.54433 4.40623
-3.02131 -3.45972 4.40623
-2.59381 -3.47646 4.27463
-2.58979 -4.21832 5.13263
-2.86507 -4.27548 5.38023
-2.65906 -4.47683 5.66062
-2.9965 -3.93679 4.91463
-2.8218 -4.14805 5.13263
-3.10025 -4.18725 5.38023
-2.90784 -4.40147 5.66062
-3.15118 -4.31018 5.66062
-3.20166 -4.43205 5.97702
-3.2696 -3.96317 5.13263
-3.04874 -4.0629 5.13263
-3.32914 -4.08389 5.38023
-3.388 -4.20324 5.66062
-3.20922 -3.84074 4.91463
-3.61721 -4.08095 5.66062
-1.67877 -1.36534 -4.7109
-1.67429 -1.29697 -4.49659
-1.81909 -1.34204 -4.7109
-1.77285 -1.35284 -4.7109
-1.72601 -1.36062 -4.7109
-1.83799 -1.41256 -4.90305
-1.78709 -1.42445 -4.90305
-1.73554 -1.43302 -4.90305
-1.68856 -1.51479 -5.07228
-1.68355 -1.43821 -4.90305
-1.63134 -1.43996 -4.90305
-1.80206 -1.49971 -5.07228
-1.74555 -1.5091 -5.07228
-1.69377 -1.59428 -5.21783
-1.80136 -1.27587 -4.49659
-1.75949 -1.28565 -4.49659
-1.74716 -1.22368 -4.2609
-1.77023 -1.1597 -4.00458
-1.73602 -1.16769 -4.00458
-1.75725 -1.11123 -3.7284
-1.71795 -1.0768 -3.43313
-1.74625 -1.07019 -3.43313
-1.71707 -1.2927 -4.49659
-1.72624 -1.11847 -3.7284
-1.69482 -1.12369 -3.7284
-1.70882 -1.23005 -4.2609
-1.66643 -1.17693 -4.00458
-1.70137 -1.17345 -4.00458
-1.63134 -1.29841 -4.49659
-1.63134 -1.23521 -4.2609
-1.67016 -1.2339 -4.2609
-1.66315 -1.12685 -3.7284
-1.63134 -1.08543 -3.43313
-1.66037 -1.08446 -3.43313
-1.84252 -1.2634 -4.49659
-1.92196 -1.23061 -4.49659
-1.92828 -1.15564 -4.2609
-1.78501 -1.21484 -4.2609
-1.80386 -1.14951 -4.00458
-1.82221 -1.20357 -4.2609
-1.8586 -1.18992 -4.2609
-1.86875 -1.12272 -4.00458
-1.89401 -1.17393 -4.2609
-1.83675 -1.13717 -4.00458
-1.84655 -1.07771 -3.7284
-1.89973 -1.10619 -4.00458
-1.78773 -1.10199 -3.7284
-1.80128 -1.05156 -3.43313
-1.81754 -1.09081 -3.7284
-1.87464 -1.06272 -3.7284
-1.86454 -1.32827 -4.7109
-1.88801 -1.39741 -4.90305
-1.85785 -1.48668 -5.07228
-1.909 -1.31159 -4.7109
-1.96632 -1.44995 -5.07228
-1.91268 -1.47007 -5.07228
-1.88278 -1.2483 -4.49659
-1.98457 -1.35755 -4.90305
-1.93695 -1.37905 -4.90305
-2.01851 -1.42638 -5.07228
-1.95227 -1.29205 -4.7109
-2.03065 -1.33296 -4.90305
-2.06903 -1.39942 -5.07228
-2.32414 -3.2257 -5.9914
-1.97943 -3.29243 -5.99217
-1.80459 -3.30925 -5.9924
-1.79408 -3.13701 -5.94345
-1.6291 -3.31489 -5.9925
-2.3669 -3.38438 -6.04269
-2.15286 -3.26454 -5.99183
-2.00006 -3.45395 -6.04404
-2.18461 -3.42492 -6.04343
-1.81405 -3.47141 -6.04445
-1.62507 -3.62425 -6.10022
-2.40599 -3.52898 -6.09717
-2.4401 -3.65459 -6.15517
-2.2134 -3.5707 -6.09835
-2.03392 -3.72686 -6.1584
-2.01846 -3.60047 -6.09932
-1.82818 -3.74475 -6.15938
-1.82206 -3.61831 -6.09997
-2.23279 -2.88575 -5.89699
-2.08453 -2.92015 -5.89708
-1.98509 -2.42 -5.77061
-2.1007 -2.39299 -5.77061
-2.11917 -3.09461 -5.94316
-1.95729 -3.12104 -5.94334
-2.04996 -2.7462 -5.8532
-1.889 -2.59899 -5.81116
-2.01648 -2.57781 -5.81116
-1.93436 -2.94492 -5.89714
-1.78293 -2.9599 -5.89719
-1.91136 -2.76919 -5.85322
-1.63089 -2.96495 -5.89721
-1.77158 -2.7831 -5.85323
-1.63122 -2.78779 -5.85323
-1.63134 -2.61614 -5.81116
-1.76044 -2.61182 -5.81116
-1.74992 -2.45124 -5.77061
-2.37852 -2.84187 -5.8969
-2.43612 -3.01092 -5.94272
-2.65979 -2.72628 -5.89671
-2.79404 -2.65489 -5.89663
-2.52106 -2.78866 -5.8968
-2.45285 -2.62433 -5.85313
-2.58088 -2.56659 -5.85311
-2.1868 -2.71429 -5.85318
-2.14234 -2.5484 -5.81116
-2.26604 -2.51094 -5.81116
-2.3213 -2.67362 -5.85315
-2.38703 -2.46554 -5.81116
-2.61875 -2.35157 -5.81116
-2.21431 -2.35858 -5.77061
-2.50478 -2.41237 -5.81116
-2.27901 -3.05785 -5.94295
-2.49251 -3.17601 -5.99093
-2.59536 -3.47529 -6.09586
-2.54612 -3.33239 -6.04187
-2.78063 -3.40959 -6.09452
-2.5898 -2.95394 -5.94248
-2.81749 -3.04452 -5.99
-2.65721 -3.11558 -5.99046
-2.72144 -3.269 -6.04104
-2.89205 -3.19426 -6.04024
-2.96091 -3.33187 -6.09324
-3.02195 -3.45295 -6.14927
-2.73936 -2.88706 -5.94225
-2.88411 -2.81043 -5.94205
-2.9726 -2.96294 -5.9896
-3.05714 -3.10824 -6.03954
-2.51042 -5.06132 11.4834
-2.23005 -5.19023 11.1204
-1.92601 -5.13895 11.4834
-1.93132 -5.22004 11.1204
-2.79769 -4.99422 11.4834
-2.49496 -4.9836 11.8101
-2.21945 -5.10968 11.4834
-2.20911 -5.03111 11.8101
-1.63134 -5.06957 11.8101
-2.19994 -4.96145 12.095
-1.92083 -5.05987 11.8101
-1.91623 -4.98976 12.095
-2.759 -4.84982 12.095
-2.47067 -4.86145 12.3326
-2.48126 -4.9147 12.095
-2.83846 -5.14637 10.7266
-2.54115 -5.21582 10.7266
-2.5537 -5.27891 10.3075
-2.86686 -5.25235 9.8686
-2.56255 -5.32344 9.8686
-2.56636 -5.34256 9.4154
-2.87191 -5.27119 9.4154
-2.52627 -5.14101 11.1204
-2.24001 -5.26586 10.7266
-2.2484 -5.32964 10.3075
-2.25432 -5.37466 9.8686
-1.94052 -5.36036 10.3075
-1.94348 -5.40568 9.8686
-1.93631 -5.29616 10.7266
-1.63134 -5.30638 10.7266
-1.63134 -5.37072 10.3075
-1.63134 -5.43564 9.4154
-3.13067 -5.05786 10.7266
-3.69464 -4.82502 10.7266
-3.96387 -4.68138 10.7266
-3.92572 -4.61531 11.1204
-2.85511 -5.2085 10.3075
-3.41649 -4.95062 10.7266
-3.99604 -4.7371 10.3075
-3.15134 -5.11877 10.3075
-3.45848 -5.05201 9.8686
-3.44111 -5.01006 10.3075
-3.7231 -4.88272 10.3075
-3.16594 -5.16176 9.8686
-3.74319 -4.92345 9.8686
-3.75181 -4.94094 9.4154
-4.02849 -4.79332 9.4154
-4.01874 -4.77643 9.8686
-2.81872 -5.07269 11.1204
-3.08003 -4.90869 11.4834
-2.77718 -4.91768 11.8101
-3.01452 -4.71573 12.3326
-3.10614 -4.98563 11.1204
-3.35619 -4.80509 11.4834
-3.05455 -4.83366 11.8101
-3.03197 -4.76714 12.095
-3.38729 -4.88015 11.1204
-3.6609 -4.7566 11.1204
-3.58991 -4.61265 11.8101
-3.32587 -4.73187 11.8101
-3.29898 -4.66697 12.095
-3.2782 -4.6168 12.3326
-3.62496 -4.68372 11.4834
-3.88509 -4.54493 11.4834
-3.55883 -4.54963 12.095
-3.78318 -4.36841 12.3326
-2.45216 -3.6898 -6.66362
-2.24237 -3.72382 -6.66872
-1.81419 -3.6603 -6.66577
-2.20198 -3.51135 -6.64566
-2.2239 -3.62678 -6.66073
-2.007 -3.53184 -6.64768
-2.01972 -3.64865 -6.66382
-1.61332 -3.54466 -6.64914
-2.17635 -3.37616 -6.62427
-1.8052 -3.40217 -6.62531
-1.81036 -3.54209 -6.6488
-2.14676 -3.21985 -6.59731
-1.99179 -3.39423 -6.62512
-1.79839 -3.23869 -6.5961
-1.62193 -3.23848 -6.59556
-2.25766 -3.80381 -6.66887
-2.27002 -3.86813 -6.66042
-2.5059 -3.88491 -6.63552
-2.27972 -3.91813 -6.64263
-2.287 -3.95518 -6.61473
-2.03885 -3.82635 -6.67368
-2.05144 -3.9403 -6.64843
-2.03025 -3.74628 -6.67275
-2.04582 -3.89048 -6.66584
-2.05599 -3.97742 -6.62067
-1.81699 -3.75861 -6.67541
-1.81907 -3.83888 -6.67692
-1.59955 -3.84265 -6.67814
-1.82076 -3.90294 -6.6695
-1.82235 -3.95262 -6.65236
-2.6584 -3.64279 -6.65776
-2.8602 -3.58251 -6.65165
-3.09922 -3.59078 -6.64276
-3.05665 -3.50866 -6.64582
-2.47428 -3.77004 -6.6629
-2.71082 -3.78901 -6.64639
-2.68747 -3.72379 -6.65622
-2.92494 -3.72997 -6.63883
-2.89616 -3.6643 -6.64933
-3.13325 -3.65653 -6.63161
-3.29556 -3.50245 -6.63702
-2.4921 -3.8347 -6.65377
-2.94685 -3.78043 -6.61962
-3.15905 -3.70674 -6.61195
-2.7414 -3.876 -6.5994
-2.7287 -3.83941 -6.62766
-2.96218 -3.81658 -6.59117
-3.36404 -3.61714 -6.60521
-2.4255 -3.59285 -6.65663
-2.58197 -3.42946 -6.63849
-2.39405 -3.47807 -6.64263
-2.53407 -3.29516 -6.61892
-2.35755 -3.34434 -6.62234
-2.31576 -3.19054 -6.59644
-2.62333 -3.54501 -6.65164
-2.76556 -3.36694 -6.63387
-2.47935 -3.14113 -6.59357
-2.81677 -3.48369 -6.64632
-3.00523 -3.40933 -6.64123
-2.94464 -3.29197 -6.62944
-2.70629 -3.23137 -6.61483
-2.87458 -3.15573 -6.61088
-3.11904 -3.20597 -6.62583
-2.94872 -2.91676 -6.5834
-2.79472 -2.99979 -6.58599
-2.9105 -5.41521 11.1646
-1.95998 -5.65752 10.7734
-1.63134 -5.58477 11.1646
-2.61177 -5.57093 10.7734
-2.28726 -5.62486 10.7734
-1.96448 -5.7262 10.353
-2.6252 -5.63843 10.353
-2.30262 -5.74162 9.9078
-2.29624 -5.6931 10.353
-2.96265 -5.60983 9.9078
-2.96888 -5.6331 9.4422
-2.63475 -5.68643 9.9078
-2.63945 -5.71005 9.4422
-2.30577 -5.7655 9.4422
-1.96926 -5.79908 9.4422
-1.96768 -5.77504 9.9078
-1.63134 -5.78631 9.9078
-2.59544 -5.48881 11.1646
-2.88625 -5.32473 11.5222
-2.57717 -5.39693 11.5222
-2.55793 -5.30019 11.8418
-2.83519 -5.13418 12.119
-2.53869 -5.20344 12.119
-2.23836 -5.25335 12.119
-2.22613 -5.16047 12.3494
-2.52041 -5.11157 12.3494
-2.27633 -5.54184 11.1646
-2.2641 -5.44896 11.5222
-2.25123 -5.35116 11.8418
-1.95451 -5.57395 11.1646
-1.94838 -5.48046 11.5222
-1.63134 -5.39242 11.8418
-1.94193 -5.38202 11.8418
-1.93548 -5.28357 12.119
-1.92936 -5.19008 12.3494
-3.52302 -5.20779 11.1646
-3.77634 -4.99066 11.5222
-2.86072 -5.22946 11.8418
-3.19003 -5.23272 11.5222
-3.48716 -5.12124 11.5222
-3.44941 -5.03011 11.8418
-3.7327 -4.90218 11.8418
-3.15832 -5.13931 11.8418
-3.12661 -5.04591 12.119
-3.41166 -4.93897 12.119
-3.68906 -4.8137 12.119
-3.95756 -4.67045 12.119
-4.00689 -4.75589 11.8418
-2.81095 -5.0437 12.3494
-3.0965 -4.95721 12.3494
-3.3758 -4.85242 12.3494
-3.64762 -4.72968 12.3494
-3.22014 -5.32142 11.1646
-2.93217 -5.49609 10.7734
-2.94998 -5.56256 10.353
-3.26918 -5.46587 10.353
-3.28491 -5.51222 9.9078
-3.29265 -5.53502 9.4422
-3.55506 -5.28515 10.7734
-3.24706 -5.40071 10.7734
-3.5814 -5.34874 10.353
-3.88526 -5.21153 10.353
-3.60014 -5.39395 9.9078
-3.90691 -5.25543 9.9078
-3.81778 -5.07469 11.1646
-3.85482 -5.1498 10.7734
-4.20383 -5.09701 9.9078
-2.58589 -4.20377 4.29976
-2.35079 -4.25869 4.29976
-1.88429 -4.50226 4.52296
-1.8725 -4.32222 4.29976
-2.11265 -4.29826 4.29976
-2.08813 -4.11193 4.10256
-1.86021 -4.13468 4.10256
-1.63134 -4.3303 4.29976
-2.27604 -3.88287 3.92849
-2.31413 -4.07438 4.10256
-2.06265 -3.91834 3.92849
-2.48672 -3.83366 3.92849
-2.43434 -3.63817 3.77469
-2.23656 -3.68437 3.77469
-1.84744 -3.93981 3.92849
-1.83421 -3.73782 3.77469
-1.63134 -3.94705 3.92849
-2.63258 -4.37801 4.52296
-2.38597 -4.43561 4.52296
-2.4518 -4.76656 5.05887
-2.71991 -4.70393 5.05887
-2.15873 -4.64833 4.77504
-2.41966 -4.60497 4.77504
-2.18023 -4.81169 5.05887
-2.48235 -4.9202 5.37733
-2.20067 -4.96701 5.37733
-2.13619 -4.47712 4.52296
-1.89558 -4.67459 4.77504
-1.90636 -4.83902 5.05887
-2.22003 -5.1141 5.73327
-1.63134 -4.84823 5.05887
-1.9166 -4.99535 5.37733
-1.63134 -5.15329 5.73327
-2.93045 -4.4681 4.77504
-3.17811 -4.37519 4.77504
-3.41912 -4.26636 4.77504
-2.67727 -4.54479 4.77504
-2.98342 -4.62411 5.05887
-2.76045 -4.85524 5.37733
-3.24117 -4.52741 5.05887
-3.49201 -4.41414 5.05887
-3.03377 -4.77245 5.37733
-3.30112 -4.67214 5.37733
-3.56131 -4.55466 5.37733
-2.87495 -4.30459 4.52296
-2.53726 -4.02225 4.10256
-3.04297 -4.04898 4.29976
-2.81696 -4.13378 4.29976
-2.75655 -3.95583 4.10256
-2.89632 -3.69496 3.92849
-2.69378 -3.77094 3.92849
-2.81885 -3.50796 3.77469
-2.62872 -3.57929 3.77469
-3.11202 -4.21565 4.52296
-2.97105 -3.87536 4.10256
-3.09343 -3.60595 3.92849
-3.34274 -4.11147 4.52296
-3.26293 -3.94966 4.29976
-3.1798 -3.78109 4.10256
-3.2842 -3.50416 3.92849
-1.90629 -1.66748 2.656
-1.8852 -1.58875 2.53656
-1.75934 -1.61388 2.53656
-1.69547 -1.62025 2.53656
-1.82267 -1.60335 2.53656
-1.80848 -1.532 2.39336
-1.74985 -1.54174 2.39336
-1.86637 -1.51848 2.39336
-1.79553 -1.4669 2.22156
-1.74118 -1.47593 2.22156
-1.69071 -1.54764 2.39336
-1.68638 -1.4814 2.22156
-1.63134 -1.48324 2.22156
-1.68229 -1.41913 2.01628
-1.63134 -1.42084 2.01628
-1.95776 -1.85957 2.84308
-1.92859 -2.13589 2.9935
-2.02572 -2.1132 2.9935
-1.83857 -1.6833 2.656
-1.85665 -1.77418 2.75655
-1.87736 -1.87835 2.84308
-1.90119 -1.99813 2.92044
-1.81187 -2.01298 2.92044
-1.8302 -2.15224 2.9935
-1.76998 -1.6947 2.656
-1.7008 -1.7016 2.656
-1.78207 -1.78658 2.75655
-1.70686 -1.79408 2.75655
-1.71381 -1.90007 2.84308
-1.79593 -1.89188 2.84308
-1.72179 -2.02197 2.92044
-1.73098 -2.16214 2.9935
-1.63134 -2.025 2.92044
-1.93028 -1.75698 2.75655
-1.97285 -1.64732 2.656
-2.00264 -1.73506 2.75655
-2.07342 -1.70851 2.75655
-2.03796 -1.62289 2.656
-2.10132 -1.59428 2.656
-2.20898 -1.64183 2.75655
-2.03678 -1.83563 2.84308
-2.11407 -1.80663 2.84308
-2.18929 -1.77267 2.84308
-2.14231 -1.6774 2.75655
-2.24332 -1.88222 2.92044
-2.32317 -1.83962 2.92044
-1.98937 -1.97754 2.92044
-2.12119 -2.08428 2.9935
-2.07604 -1.95128 2.92044
-2.16082 -1.91948 2.92044
-2.30546 -2.00821 2.9935
-2.39342 -1.96128 2.9935
-1.84919 -1.45437 2.22156
-1.94665 -1.57013 2.53656
-2.00676 -1.54758 2.53656
-1.97891 -1.48037 2.39336
-1.92326 -1.50125 2.39336
-1.95351 -1.41904 2.22156
-1.90193 -1.43839 2.22156
-2.00371 -1.39637 2.22156
-2.16264 -1.56157 2.656
-2.06526 -1.52117 2.53656
-2.12188 -1.49096 2.53656
-2.08549 -1.42794 2.39336
-2.03308 -1.45591 2.39336
-2.12489 -3.12239 3.9567
-2.0939 -2.96586 3.8724
-1.7968 -3.16538 3.95657
-1.78645 -3.00522 3.87207
-2.15556 -3.27697 4.05105
-1.96156 -3.14924 3.95664
-1.98205 -3.30573 4.05103
-1.81719 -3.47795 4.15663
-1.80706 -3.32312 4.05102
-2.36695 -3.38667 4.15663
-2.40623 -3.53328 4.27463
-2.18577 -3.42899 4.15663
-2.21538 -3.57786 4.27463
-2.00225 -3.45949 4.15663
-2.24485 -2.93098 3.87249
-2.06275 -2.80798 3.79697
-2.1616 -2.62027 3.72951
-2.00048 -2.49054 3.66797
-2.03156 -2.64934 3.72922
-1.89935 -2.66871 3.72864
-1.87873 -2.50661 3.66704
-1.85833 -2.34444 3.61064
-1.94087 -2.99055 3.87224
-1.9201 -2.8302 3.79664
-1.76571 -2.67947 3.72806
-1.77607 -2.8431 3.7963
-1.75542 -2.51479 3.66611
-1.63134 -2.35029 3.60854
-2.20329 -2.7759 3.79714
-2.53789 -2.83058 3.87224
-2.67896 -2.76608 3.87207
-2.34106 -2.73341 3.79697
-2.41292 -2.5311 3.72864
-2.4757 -2.68133 3.79664
-2.60688 -2.62048 3.7963
-2.11992 -2.46474 3.66844
-2.28874 -2.58043 3.72922
-2.34974 -2.38041 3.66704
-2.53404 -2.47359 3.72806
-2.07843 -2.30992 3.61274
-2.18376 -2.27482 3.61204
-2.23625 -2.42737 3.66797
-2.38678 -2.17764 3.60924
-2.46061 -2.32583 3.66611
-2.56913 -2.26562 3.66564
-2.39301 -2.88572 3.8724
-2.28609 -3.08489 3.95674
-2.32685 -3.23699 4.05106
-2.49517 -3.18597 4.05105
-2.44444 -3.03677 3.9567
-2.65981 -3.12412 4.05103
-2.54502 -3.33273 4.15663
-2.77729 -3.40762 4.27463
-2.59932 -2.97835 3.95664
-2.88871 -3.19084 4.15663
-2.7192 -3.26738 4.15663
-2.75007 -2.90996 3.95657
-2.82005 -3.05169 4.05102
-3.05277 -3.10331 4.15663
-2.95585 -3.32699 4.27463
-1.67923 -1.00522 -2.44647
-1.63134 -0.999119 -2.09161
-1.70293 -1.00129 -2.44647
-1.65647 -1.02497 -2.78987
-1.65533 -1.00761 -2.44647
-1.63134 -1.02581 -2.78987
-1.63134 -1.00841 -2.44647
-1.73083 -1.01262 -2.78987
-1.71132 -1.04347 -3.11952
-1.70632 -1.01834 -2.78987
-1.6815 -1.02247 -2.78987
-1.65815 -1.05054 -3.11952
-1.68928 -1.08157 -3.43313
-1.68484 -1.04787 -3.11952
-1.63134 -1.05143 -3.11952
-1.72392 -0.986846 -2.09161
-1.70112 -0.992173 -2.09161
-1.70213 -0.997251 -1.35668
-1.7049 -1.01118 -0.981198
-1.72894 -1.00557 -0.981198
-1.70086 -0.99087 -1.72758
-1.67802 -0.996011 -2.09161
-1.65473 -0.998335 -2.09161
-1.67785 -0.994695 -1.72758
-1.65464 -0.99701 -1.72758
-1.65506 -1.0035 -1.35668
-1.67869 -1.00115 -1.35668
-1.68055 -1.01523 -0.981198
-1.68339 -1.03682 -0.603423
-1.63134 -1.0185 -0.981198
-1.65599 -1.01768 -0.981198
-1.72358 -0.985564 -1.72758
-1.74633 -0.980057 -2.09161
-1.78959 -0.962199 -2.09161
-1.72526 -0.991847 -1.35668
-1.7459 -0.9788 -1.72758
-1.76775 -0.970607 -1.72758
-1.79188 -0.966844 -1.35668
-1.789 -0.961009 -1.72758
-1.748 -0.98496 -1.35668
-1.77023 -0.976617 -1.35668
-1.77567 -0.989741 -0.981198
-1.79816 -0.979585 -0.981198
-1.75256 -0.998411 -0.981198
-1.80779 -0.999115 -0.603423
-1.83082 -0.98683 -0.603423
-1.74932 -0.988857 -2.44647
-1.72633 -0.995822 -2.44647
-1.73746 -1.03737 -3.11952
-1.76825 -0.971833 -2.09161
-1.75491 -1.00532 -2.78987
-1.76314 -1.02959 -3.11952
-1.78827 -1.02016 -3.11952
-1.77407 -1.06177 -3.43313
-1.77181 -0.980419 -2.44647
-1.77847 -0.996487 -2.78987
-1.81488 -0.959232 -2.44647
-1.7937 -0.970535 -2.44647
-1.80139 -0.986135 -2.78987
-1.81273 -1.00912 -3.11952
-1.8364 -0.996489 -3.11952
-1.82776 -1.0396 -3.43313
-1.90823 -2.03355 -5.64283
-1.88726 -1.92808 -5.58755
-1.72415 -2.058 -5.64283
-1.63134 -2.06111 -5.64283
-1.63134 -1.95356 -5.58755
-1.83202 -2.16606 -5.68964
-1.81658 -2.04878 -5.64283
-1.93131 -2.14956 -5.68964
-1.95682 -2.27781 -5.73116
-1.84908 -2.29572 -5.73116
-1.73189 -2.17605 -5.68964
-2.06318 -2.25297 -5.73116
-1.868 -2.43946 -5.77061
-1.74044 -2.30656 -5.73116
-1.63134 -2.31021 -5.73116
-1.97089 -1.90855 -5.58755
-1.94539 -1.8134 -5.52061
-1.86804 -1.83147 -5.52061
-1.92179 -1.72531 -5.43881
-1.85025 -1.74202 -5.43881
-1.83355 -1.65804 -5.33894
-1.89963 -1.6426 -5.33894
-1.8176 -1.57783 -5.21783
-1.87847 -1.56361 -5.21783
-1.78969 -1.84449 -5.52061
-1.76662 -1.66916 -5.33894
-1.80255 -1.94216 -5.58755
-1.77779 -1.75406 -5.43881
-1.75595 -1.58808 -5.21783
-1.71712 -1.95069 -5.58755
-1.63134 -1.85503 -5.52061
-1.71068 -1.85238 -5.52061
-1.63134 -1.76381 -5.43881
-1.70472 -1.76135 -5.43881
-1.69912 -1.6759 -5.33894
-2.05308 -1.88365 -5.58755
-2.09578 -1.76248 -5.52061
-2.13348 -1.85349 -5.58755
-2.21173 -1.81816 -5.58755
-1.9921 -1.70401 -5.43881
-2.02142 -1.79037 -5.52061
-2.06087 -1.67821 -5.43881
-2.16815 -1.7298 -5.52061
-2.1278 -1.64799 -5.43881
-1.96458 -1.62293 -5.33894
-2.0281 -1.5991 -5.33894
-1.93829 -1.54549 -5.21783
-1.9968 -1.52354 -5.21783
-2.08992 -1.57118 -5.33894
-2.05375 -1.49783 -5.21783
-2.10886 -1.46842 -5.21783
-2.14976 -1.53926 -5.33894
-1.99872 -2.01241 -5.64283
-2.12567 -2.09748 -5.68964
-2.02933 -2.12666 -5.68964
-2.08765 -1.98547 -5.64283
-2.21991 -2.06213 -5.68964
-2.16771 -2.2213 -5.73116
-2.17464 -1.95284 -5.64283
-2.31162 -2.02071 -5.68964
-2.36947 -2.13801 -5.73116
-2.26996 -2.18294 -5.73116
-2.32545 -2.31688 -5.77061
-2.34123 -1.8709 -5.64283
-2.2593 -1.91461 -5.64283
-2.40039 -1.97335 -5.68964
-2.4336 -2.26805 -5.77061
-2.52526 -5.13594 7.57461
