-0.353238 -0.803763 -0.752527
-0.357248 -0.801291 -0.749616
-0.357544 -0.808106 -0.749626
-0.370336 -0.797916 -0.729848
-0.364033 -0.799085 -0.735025
-0.368355 -0.795972 -0.736454
-0.362491 -0.800594 -0.739834
-0.364181 -0.804459 -0.731669
-0.395178 -0.832363 -0.731194
-0.393863 -0.827624 -0.729432
-0.395172 -0.835094 -0.726784
-0.404367 -0.837825 -0.746513
-0.403277 -0.833121 -0.74804
-0.402974 -0.838577 -0.741472
-0.411101 -0.818378 -0.739298
-0.404269 -0.819673 -0.738666
-0.407058 -0.820246 -0.742824
-0.354331 -0.801869 -0.75731
-0.359317 -0.802551 -0.759074
-0.361886 -0.798072 -0.758095
-0.365787 -0.807783 -0.722315
-0.371324 -0.800077 -0.723154
-0.367084 -0.802891 -0.721669
-0.414748 -0.825475 -0.765998
-0.412681 -0.821651 -0.762845
-0.409831 -0.825741 -0.763846
-0.358204 -0.798736 -0.763089
-0.364977 -0.795648 -0.749883
-0.361367 -0.796083 -0.746033
-0.35942 -0.801704 -0.744891
-0.363114 -0.793888 -0.755154
-0.360961 -0.792648 -0.750094
-0.378104 -0.807728 -0.70967
-0.374737 -0.803326 -0.716904
-0.378667 -0.806707 -0.714617
-0.410422 -0.834918 -0.761554
-0.411638 -0.830382 -0.765287
-0.399546 -0.81658 -0.716541
-0.402198 -0.816555 -0.720991
-0.403178 -0.819442 -0.712763
-0.399305 -0.824353 -0.738685
-0.401547 -0.819415 -0.73438
-0.396472 -0.825255 -0.734497
-0.416231 -0.819766 -0.74175
-0.414763 -0.820187 -0.735759
-0.365619 -0.800258 -0.728536
-0.415667 -0.819644 -0.759272
-0.418055 -0.821775 -0.764075
-0.420776 -0.821511 -0.758803
-0.393852 -0.82312 -0.727062
-0.39636 -0.818945 -0.722844
-0.392451 -0.822377 -0.722014
-0.404865 -0.832024 -0.752799
-0.404466 -0.827404 -0.75063
-0.405323 -0.818956 -0.717387
-0.378342 -0.812764 -0.720805
-0.375441 -0.817459 -0.721346
-0.377774 -0.818094 -0.716939
-0.401129 -0.833747 -0.742556
-0.39933 -0.834794 -0.737904
-0.372117 -0.800154 -0.735024
-0.399896 -0.817686 -0.726331
-0.363978 -0.812268 -0.738346
-0.408229 -0.817465 -0.735271
-0.405482 -0.81707 -0.731026
-0.374477 -0.804436 -0.731701
-0.374425 -0.801083 -0.727687
-0.404963 -0.816718 -0.725283
-0.410077 -0.819556 -0.726482
-0.408021 -0.820025 -0.721533
-0.418059 -0.818832 -0.753741
-0.421026 -0.823437 -0.748093
-0.417611 -0.819012 -0.74781
-0.411842 -0.819399 -0.744683
-0.400613 -0.834547 -0.718659
-0.396879 -0.836229 -0.721637
-0.396104 -0.835105 -0.716549
-0.406866 -0.841062 -0.737786
-0.407812 -0.8411 -0.742944
-0.362965 -0.793011 -0.741951
-0.368781 -0.804761 -0.716563
-0.399603 -0.82988 -0.708377
-0.377956 -0.809907 -0.704326
-0.382504 -0.812618 -0.704712
-0.387611 -0.815748 -0.703999
-0.392795 -0.815708 -0.702427
-0.396513 -0.817093 -0.705972
-0.395329 -0.83399 -0.711449
-0.379542 -0.825719 -0.70861
-0.365995 -0.817426 -0.709192
-0.373609 -0.808813 -0.706552
-0.40036 -0.825768 -0.705533
-0.410664 -0.821028 -0.749845
-0.413214 -0.820513 -0.75448
-0.392476 -0.832726 -0.722733
-0.40646 -0.834577 -0.757097
-0.406523 -0.828684 -0.756353
-0.357834 -0.798374 -0.754249
-0.396969 -0.816915 -0.71194
-0.354559 -0.804841 -0.747099
-0.39124 -0.8332 -0.717204
-0.391541 -0.827757 -0.723059
-0.411938 -0.819071 -0.731747
-0.407718 -0.824335 -0.753443
-0.406163 -0.82308 -0.747501
-0.364135 -0.814166 -0.713193
-0.368662 -0.809733 -0.71285
-0.407963 -0.840949 -0.748087
-0.405629 -0.837198 -0.751764
-0.389363 -0.82832 -0.717599
-0.390236 -0.822937 -0.716579
-0.402069 -0.828386 -0.746246
-0.375672 -0.802577 -0.722033
-0.399375 -0.828896 -0.741046
-0.397087 -0.829882 -0.736574
-0.416272 -0.825359 -0.748927
-0.414389 -0.827916 -0.753043
-0.4123 -0.829984 -0.74792
-0.38179 -0.81105 -0.711028
-0.404615 -0.834103 -0.722159
-0.399866 -0.837166 -0.725564
-0.412754 -0.823555 -0.728379
-0.394778 -0.81863 -0.717091
-0.39798 -0.820567 -0.730965
-0.387426 -0.829328 -0.713013
-0.407595 -0.830861 -0.760759
-0.389566 -0.819086 -0.707957
-0.400407 -0.820421 -0.70596
-0.402719 -0.823936 -0.743586
-0.406778 -0.834261 -0.73206
-0.402782 -0.838674 -0.729483
-0.406072 -0.835083 -0.727073
-0.409937 -0.823726 -0.758889
-0.379295 -0.821391 -0.711548
-0.417115 -0.825067 -0.74388
-0.361729 -0.808544 -0.719397
-0.392265 -0.819244 -0.712393
-0.42203 -0.822545 -0.75299
-0.366128 -0.81454 -0.734071
-0.363827 -0.816917 -0.730219
-0.36824 -0.817574 -0.727493
-0.365079 -0.806179 -0.727047
-0.373096 -0.805882 -0.711871
-0.369765 -0.799681 -0.739799
-0.367423 -0.809037 -0.740077
-0.364556 -0.806864 -0.745181
-0.400091 -0.832405 -0.714015
-0.373532 -0.815467 -0.726229
-0.370147 -0.819488 -0.722597
-0.366532 -0.795623 -0.744471
-0.401754 -0.83894 -0.735917
-0.410231 -0.837879 -0.757034
-0.360748 -0.808659 -0.724782
-0.37244 -0.821214 -0.717508
-0.355554 -0.80641 -0.759251
-0.370347 -0.811297 -0.735087
-0.387994 -0.823384 -0.712072
-0.369546 -0.823037 -0.713421
-0.36018 -0.804151 -0.754209
-0.356248 -0.803365 -0.763155
-0.410303 -0.839088 -0.75213
-0.397977 -0.836482 -0.731876
-0.368185 -0.803608 -0.742553
-0.366083 -0.801409 -0.746984
-0.409489 -0.825754 -0.72482
-0.358992 -0.813034 -0.738964
-0.361083 -0.810049 -0.743486
-0.359088 -0.804755 -0.740402
-0.360203 -0.815035 -0.7345
-0.361368 -0.805233 -0.735737
-0.366441 -0.809287 -0.717548
-0.364417 -0.818937 -0.724086
-0.359302 -0.807664 -0.731369
-0.367023 -0.821297 -0.718053
-0.36729 -0.812557 -0.708906
-0.380878 -0.815968 -0.713343
-0.380685 -0.811237 -0.716094
-0.401493 -0.827536 -0.712538
-0.383966 -0.817566 -0.707912
-0.406728 -0.839324 -0.732922
-0.409041 -0.836093 -0.742206
-0.40804 -0.824821 -0.719889
-0.405152 -0.824966 -0.714916
-0.370325 -0.814741 -0.731235
-0.402404 -0.82341 -0.709604
-0.373932 -0.810556 -0.730424
-0.371321 -0.805444 -0.737023
-0.41765 -0.824444 -0.738037
-0.376896 -0.80615 -0.726302
-0.362483 -0.80471 -0.749705
-0.379019 -0.807451 -0.720031
-0.41429 -0.828206 -0.761365
-0.41244 -0.832354 -0.757386
-0.390289 -0.833231 -0.711206
-0.416287 -0.825561 -0.757201
-0.411754 -0.833241 -0.752359
-0.410285 -0.835721 -0.747946
-0.41081 -0.830323 -0.742272
-0.407918 -0.835179 -0.737132
-0.413093 -0.826498 -0.73874
-0.40892 -0.830208 -0.735846
-0.41508 -0.824617 -0.732909
-0.409732 -0.827031 -0.731294
-0.406316 -0.829167 -0.727799
-0.404863 -0.828211 -0.722873
-0.404105 -0.830721 -0.718194
-0.363425 -0.799774 -0.752992
-0.376238 -0.811139 -0.725893
-0.384299 -0.828834 -0.709076
-0.383919 -0.823067 -0.708405
-0.374947 -0.824501 -0.710329
-0.354314 -0.808482 -0.754738
