-0.366548 -0.859109 -0.713053
-0.371372 -0.858195 -0.711095
-0.36956 -0.853608 -0.711942
-0.355929 -0.888193 -0.706881
-0.355259 -0.882345 -0.713353
-0.35226 -0.886797 -0.710552
-0.343587 -0.889537 -0.731077
-0.345034 -0.893586 -0.728171
-0.34748 -0.889583 -0.726086
-0.354486 -0.892529 -0.702601
-0.359398 -0.891047 -0.703202
-0.363067 -0.837192 -0.704484
-0.378565 -0.858729 -0.705127
-0.379647 -0.868353 -0.702583
-0.375149 -0.856176 -0.708045
-0.377616 -0.872968 -0.703732
-0.378664 -0.88266 -0.696794
-0.373728 -0.845251 -0.706057
-0.378361 -0.864104 -0.705106
-0.36655 -0.869552 -0.712461
-0.372512 -0.865652 -0.709814
-0.368459 -0.863714 -0.712653
-0.36047 -0.840189 -0.709133
-0.357399 -0.836983 -0.706061
-0.35291 -0.845816 -0.714514
-0.357877 -0.844577 -0.713695
-0.355605 -0.840434 -0.710609
-0.345806 -0.894425 -0.709586
-0.344437 -0.898661 -0.712642
-0.34245 -0.898877 -0.707253
-0.359342 -0.877281 -0.713503
-0.361915 -0.870581 -0.714755
-0.35524 -0.875394 -0.716094
-0.355015 -0.851009 -0.716327
-0.349369 -0.852786 -0.720222
-0.354051 -0.864603 -0.719306
-0.359374 -0.864285 -0.717021
-0.35706 -0.859101 -0.718178
-0.350625 -0.841541 -0.711576
-0.353235 -0.855888 -0.719369
-0.374869 -0.861185 -0.708775
-0.364498 -0.875146 -0.712066
-0.370629 -0.871338 -0.709698
-0.351142 -0.889791 -0.706584
-0.364351 -0.889612 -0.703909
-0.370426 -0.885066 -0.703719
-0.366137 -0.884717 -0.706363
-0.360386 -0.834454 -0.701212
-0.354142 -0.834437 -0.702598
-0.348381 -0.889104 -0.713902
-0.3518 -0.879437 -0.717038
-0.363679 -0.864633 -0.714418
-0.364518 -0.880351 -0.708799
-0.359363 -0.882496 -0.710246
-0.343758 -0.862273 -0.72598
-0.350249 -0.861271 -0.720797
-0.346492 -0.85788 -0.722559
-0.376079 -0.868659 -0.706374
-0.368455 -0.844347 -0.709167
-0.365765 -0.848987 -0.71302
-0.371289 -0.879925 -0.706431
-0.375378 -0.880926 -0.701201
-0.373694 -0.875557 -0.705488
-0.338182 -0.880587 -0.733531
-0.336698 -0.885866 -0.735512
-0.359918 -0.854031 -0.715725
-0.361752 -0.859918 -0.715339
-0.36482 -0.854346 -0.714512
-0.33863 -0.871152 -0.726756
-0.339713 -0.876378 -0.728534
-0.343383 -0.871808 -0.724479
-0.365368 -0.840473 -0.707827
-0.369323 -0.835365 -0.706061
-0.363712 -0.84367 -0.711662
-0.360953 -0.848472 -0.714935
-0.34278 -0.880312 -0.729761
-0.345623 -0.884931 -0.729075
-0.345756 -0.89685 -0.723499
-0.345965 -0.880858 -0.725308
-0.350093 -0.874967 -0.719244
-0.353076 -0.869565 -0.719329
-0.348604 -0.870779 -0.722037
-0.347941 -0.885269 -0.72339
-0.368695 -0.890028 -0.701401
-0.34941 -0.848109 -0.717655
-0.341915 -0.903255 -0.717142
-0.345839 -0.898405 -0.718288
-0.325814 -0.880049 -0.691293
-0.357235 -0.869772 -0.716389
-0.351605 -0.897057 -0.700072
-0.360737 -0.886585 -0.707225
-0.316126 -0.873824 -0.697375
-0.321771 -0.884206 -0.693777
-0.341014 -0.904438 -0.712021
-0.37921 -0.878156 -0.699066
-0.368671 -0.877113 -0.709645
-0.375553 -0.88632 -0.698338
-0.356679 -0.86145 -0.686812
-0.347486 -0.866113 -0.723961
-0.347222 -0.894161 -0.715219
-0.348514 -0.888301 -0.719119
-0.347916 -0.893397 -0.720195
-0.34503 -0.876846 -0.722393
-0.372559 -0.839473 -0.707174
-0.347371 -0.880583 -0.719693
-0.352276 -0.837521 -0.707285
-0.347961 -0.893995 -0.703303
-0.34631 -0.897587 -0.6998
-0.342099 -0.867117 -0.726112
-0.350388 -0.884783 -0.715478
-0.36431 -0.892913 -0.69996
-0.339898 -0.901676 -0.702537
-0.33917 -0.904193 -0.706867
-0.360302 -0.895079 -0.697474
-0.368095 -0.894182 -0.696473
-0.376627 -0.890038 -0.694522
-0.341067 -0.885141 -0.733088
-0.37135 -0.848702 -0.708901
-0.375975 -0.851018 -0.7058
-0.34986 -0.833122 -0.700344
-0.372124 -0.89115 -0.69715
-0.354487 -0.832511 -0.697987
-0.356946 -0.870816 -0.683903
-0.340964 -0.894884 -0.731014
-0.34265 -0.901492 -0.72292
-0.34215 -0.898382 -0.727626
-0.339125 -0.890711 -0.733761
