-0.348857 -0.891122 -0.656957
-0.34826 -0.891703 -0.65718
-0.261823 -0.864044 -0.711879
-0.26228 -0.862822 -0.71237
-0.354866 -0.808032 -0.735631
-0.403282 -0.823414 -0.67563
-0.26721 -0.867899 -0.673348
-0.346771 -0.892089 -0.726742
-0.347014 -0.890699 -0.726913
-0.346383 -0.890827 -0.727905
-0.266516 -0.870337 -0.672414
-0.271299 -0.846823 -0.719886
-0.270403 -0.848003 -0.719604
-0.359636 -0.83501 -0.664932
-0.359108 -0.83313 -0.664901
-0.358946 -0.831508 -0.665084
-0.358955 -0.830014 -0.665364
-0.35909 -0.828586 -0.66572
-0.359217 -0.827156 -0.666075
-0.359607 -0.825881 -0.666584
-0.360214 -0.824741 -0.66722
-0.360936 -0.823675 -0.667917
-0.361753 -0.822673 -0.668674
-0.362663 -0.821727 -0.669482
-0.36356 -0.820762 -0.670289
-0.364465 -0.819806 -0.671097
-0.365465 -0.818905 -0.671961
-0.366588 -0.81811 -0.67289
-0.367786 -0.817326 -0.673871
-0.368847 -0.816425 -0.674772
-0.369396 -0.81524 -0.675373
-0.369396 -0.813712 -0.675667
-0.36936 -0.812155 -0.675925
-0.369561 -0.810759 -0.676337
-0.369789 -0.809373 -0.676754
-0.370025 -0.807969 -0.677143
-0.370421 -0.8067 -0.677666
-0.371022 -0.805548 -0.678305
-0.330498 -0.882557 -0.647814
-0.323473 -0.915775 -0.665109
-0.323405 -0.916392 -0.666885
-0.328046 -0.897869 -0.632498
-0.327401 -0.89894 -0.631872
-0.328626 -0.896741 -0.633098
-0.329233 -0.895648 -0.633731
-0.406704 -0.834769 -0.757826
-0.27641 -0.857036 -0.665749
-0.243558 -0.877963 -0.701867
-0.358128 -0.809799 -0.721541
-0.361 -0.793723 -0.748683
-0.274391 -0.835961 -0.700292
-0.273981 -0.836235 -0.701155
-0.264415 -0.856835 -0.685797
-0.263974 -0.857049 -0.68667
-0.262172 -0.870197 -0.67928
-0.287618 -0.825783 -0.70154
-0.288179 -0.825625 -0.700727
-0.370716 -0.845579 -0.654718
-0.252509 -0.880911 -0.723167
-0.278441 -0.83624 -0.687048
-0.277945 -0.83642 -0.687901
-0.410733 -0.83693 -0.758187
-0.411317 -0.836557 -0.756761
-0.269625 -0.853573 -0.677698
-0.269964 -0.853263 -0.676752
-0.268999 -0.871728 -0.666483
-0.269252 -0.870438 -0.666906
-0.270067 -0.870459 -0.666231
-0.2712 -0.884736 -0.664358
-0.270386 -0.884702 -0.665041
-0.362691 -0.817274 -0.715922
-0.305708 -0.892404 -0.634738
-0.268811 -0.880151 -0.667262
-0.269381 -0.8801 -0.666449
-0.271528 -0.860388 -0.670352
-0.270869 -0.861906 -0.67085
-0.357487 -0.805854 -0.740319
-0.359942 -0.802615 -0.742623
-0.36054 -0.802468 -0.741832
-0.359246 -0.80376 -0.741928
-0.36103 -0.801191 -0.742404
-0.360512 -0.801372 -0.743249
-0.271456 -0.856522 -0.672266
-0.271896 -0.856268 -0.671379
-0.273075 -0.858905 -0.669231
-0.272282 -0.858925 -0.669905
-0.273019 -0.857426 -0.669465
-0.27387 -0.847962 -0.675519
-0.27459 -0.847903 -0.674789
-0.272848 -0.860208 -0.668845
-0.276166 -0.847913 -0.673428
-0.354194 -0.80807 -0.736377
-0.267105 -0.870197 -0.671619
-0.39851 -0.83309 -0.713052
-0.369986 -0.809532 -0.692023
-0.363091 -0.817808 -0.727136
-0.358875 -0.835044 -0.665624
-0.358522 -0.833283 -0.665691
-0.358365 -0.831661 -0.665878
-0.358483 -0.830225 -0.666226
-0.35863 -0.828799 -0.666588
-0.358767 -0.827374 -0.666945
-0.359144 -0.826099 -0.667452
-0.359771 -0.824976 -0.668095
-0.360474 -0.823896 -0.668789
-0.361275 -0.822873 -0.669537
-0.362154 -0.821889 -0.670336
-0.362991 -0.820904 -0.671096
-0.363896 -0.819949 -0.671906
-0.364823 -0.819024 -0.672722
-0.365995 -0.818205 -0.673689
-0.367209 -0.817455 -0.674675
-0.368182 -0.816511 -0.67553
-0.368689 -0.815312 -0.676105
-0.369111 -0.814038 -0.676641
-0.369338 -0.812721 -0.677112
-0.369545 -0.811272 -0.677493
-0.369797 -0.809885 -0.67791
-0.36999 -0.808407 -0.678222
-0.370212 -0.807071 -0.678695
-0.370632 -0.805799 -0.679222
-0.370942 -0.804983 -0.6808
-0.371781 -0.804292 -0.681406
-0.286194 -0.887324 -0.734272
-0.340833 -0.870853 -0.648576
-0.33984 -0.870604 -0.648854
-0.341072 -0.869653 -0.648051
-0.347163 -0.916202 -0.681565
-0.326187 -0.900157 -0.632002
-0.326666 -0.898967 -0.632594
-0.359058 -0.922307 -0.655627
-0.359463 -0.921155 -0.654602
-0.327305 -0.897891 -0.633209
-0.327966 -0.896823 -0.633856
-0.328584 -0.895742 -0.634497
-0.363524 -0.819097 -0.718382
-0.359284 -0.813076 -0.720502
-0.358737 -0.81322 -0.721325
-0.35836 -0.811478 -0.721385
-0.243702 -0.876603 -0.702218
-0.243845 -0.875246 -0.702567
-0.367421 -0.818652 -0.725551
-0.367286 -0.818055 -0.727023
-0.359943 -0.797193 -0.749783
-0.275234 -0.83505 -0.701052
-0.274874 -0.835342 -0.701968
-0.264015 -0.859441 -0.68502
-0.263407 -0.859576 -0.68581
-0.264284 -0.858186 -0.685447
-0.262515 -0.868983 -0.679732
-0.286734 -0.826646 -0.700757
-0.286531 -0.827462 -0.699228
-0.40438 -0.823072 -0.681404
-0.404522 -0.822682 -0.680344
-0.404957 -0.821889 -0.681821
-0.277058 -0.837309 -0.687117
-0.27759 -0.837115 -0.686293
-0.269955 -0.852359 -0.678169
-0.270267 -0.85202 -0.677196
-0.354265 -0.812959 -0.727974
-0.268141 -0.878168 -0.667163
-0.268615 -0.877951 -0.666276
-0.267818 -0.876483 -0.667256
-0.268323 -0.876272 -0.666411
-0.270729 -0.864721 -0.670232
-0.271331 -0.863156 -0.669708
-0.407987 -0.820378 -0.744227
-0.360953 -0.800064 -0.743794
-0.361424 -0.799859 -0.742931
-0.272308 -0.85747 -0.670207
-0.273321 -0.849054 -0.674943
-0.274015 -0.848973 -0.674193
-0.268079 -0.885659 -0.665735
-0.268848 -0.88471 -0.666447
-0.268803 -0.885621 -0.665008
-0.350122 -0.809219 -0.734562
-0.351214 -0.808405 -0.735477
-0.28231 -0.840304 -0.675426
-0.282883 -0.840174 -0.674622
-0.393194 -0.821905 -0.657503
-0.393588 -0.822372 -0.658301
-0.40841 -0.834404 -0.762726
-0.407776 -0.833697 -0.762092
-0.246875 -0.886606 -0.716313
-0.378086 -0.868803 -0.651037
-0.378251 -0.870169 -0.651405
-0.37761 -0.870021 -0.650649
-0.358039 -0.833499 -0.666543
-0.357886 -0.831874 -0.666735
-0.358033 -0.830441 -0.667099
-0.358232 -0.829016 -0.667466
-0.358341 -0.827603 -0.667825
-0.358718 -0.826336 -0.668331
-0.359394 -0.825244 -0.669014
-0.360109 -0.824174 -0.66971
-0.360885 -0.82313 -0.670454
-0.361625 -0.822081 -0.671159
-0.362455 -0.821089 -0.671917
-0.363342 -0.820111 -0.672719
-0.364341 -0.81921 -0.673582
-0.365433 -0.818366 -0.674502
-0.366632 -0.817586 -0.675482
-0.367527 -0.816607 -0.676288
-0.368035 -0.815392 -0.676867
-0.368649 -0.814247 -0.677511
-0.369039 -0.812971 -0.678033
-0.369308 -0.811604 -0.678463
-0.369646 -0.81028 -0.678941
-0.369977 -0.808956 -0.679419
-0.370128 -0.807516 -0.679785
-0.370404 -0.806159 -0.68021
-0.258574 -0.899704 -0.717797
-0.370657 -0.805294 -0.681775
-0.370446 -0.805653 -0.682809
-0.29655 -0.893688 -0.639051
-0.387336 -0.86649 -0.658348
-0.387618 -0.865287 -0.658896
-0.387913 -0.865739 -0.659737
-0.32604 -0.901831 -0.632986
-0.32538 -0.900123 -0.632695
-0.32693 -0.901892 -0.632405
-0.325851 -0.89894 -0.633283
-0.326562 -0.897911 -0.633921
-0.327251 -0.896872 -0.634592
-0.282838 -0.841045 -0.673194
-0.38618 -0.829896 -0.710315
-0.323128 -0.909376 -0.650901
-0.275515 -0.848928 -0.672789
-0.345559 -0.865783 -0.725013
-0.357048 -0.807292 -0.736057
-0.244092 -0.873953 -0.702971
-0.269953 -0.889303 -0.661398
-0.271141 -0.888102 -0.661252
-0.286387 -0.886016 -0.734869
-0.285272 -0.885404 -0.734455
-0.285009 -0.886665 -0.733838
-0.244527 -0.872801 -0.703507
-0.387728 -0.866949 -0.659152
-0.358411 -0.799909 -0.749447
-0.372581 -0.804475 -0.678356
-0.275716 -0.834424 -0.702727
-0.263061 -0.860779 -0.685341
-0.262898 -0.867628 -0.680246
-0.26373 -0.858341 -0.686265
-0.287332 -0.826552 -0.699964
-0.276751 -0.838011 -0.685543
-0.276229 -0.838214 -0.686371
-0.400705 -0.843208 -0.669467
-0.4012 -0.842443 -0.67089
-0.270319 -0.85114 -0.678637
-0.270697 -0.850864 -0.677717
-0.267732 -0.874918 -0.667485
-0.268162 -0.874655 -0.666596
-0.270811 -0.863318 -0.670548
-0.270576 -0.866065 -0.669871
-0.372185 -0.806845 -0.73512
-0.37148 -0.807055 -0.736145
-0.245834 -0.876621 -0.716114
-0.274773 -0.848957 -0.673495
-0.26752 -0.889203 -0.663455
-0.268488 -0.887844 -0.663155
-0.267737 -0.887858 -0.663855
-0.268208 -0.886693 -0.664391
-0.268904 -0.886647 -0.663672
-0.269582 -0.884675 -0.665729
-0.269583 -0.885638 -0.664337
-0.267136 -0.887983 -0.664635
-0.295081 -0.875366 -0.739684
-0.294696 -0.874808 -0.739744
-0.37956 -0.880629 -0.657258
-0.380937 -0.879498 -0.657345
-0.381255 -0.87995 -0.658176
-0.35759 -0.833718 -0.667418
-0.357728 -0.835354 -0.667225
-0.357526 -0.832152 -0.667659
-0.357632 -0.830712 -0.668006
-0.357787 -0.829284 -0.668369
-0.357866 -0.827872 -0.668681
-0.358332 -0.826602 -0.669248
-0.359015 -0.825512 -0.669934
-0.359745 -0.824453 -0.670636
-0.360455 -0.823378 -0.671331
-0.361157 -0.822293 -0.672026
-0.361984 -0.821298 -0.672783
-0.36286 -0.820306 -0.673582
-0.363872 -0.819422 -0.67445
-0.364891 -0.818549 -0.67532
-0.365998 -0.817715 -0.676244
-0.366952 -0.816746 -0.677095
-0.367486 -0.815555 -0.677686
-0.368182 -0.814459 -0.678379
-0.368524 -0.813142 -0.678859
-0.368741 -0.811751 -0.679275
-0.369086 -0.81043 -0.679754
-0.369632 -0.809253 -0.680384
-0.370016 -0.807954 -0.680873
-0.370244 -0.806562 -0.681294
-0.281984 -0.897994 -0.656952
-0.282053 -0.897383 -0.655182
-0.282974 -0.898187 -0.656754
-0.326865 -0.902501 -0.633316
-0.324558 -0.900079 -0.63337
-0.324996 -0.898875 -0.63392
-0.325666 -0.89783 -0.634569
-0.362112 -0.817587 -0.727026
-0.35997 -0.801538 -0.74407
-0.35942 -0.801704 -0.744891
-0.36044 -0.800244 -0.744631
-0.278265 -0.831699 -0.705016
-0.279085 -0.830752 -0.70578
-0.279395 -0.830445 -0.704811
-0.274022 -0.852284 -0.67113
-0.273632 -0.853476 -0.670637
-0.272566 -0.861458 -0.66841
-0.27341 -0.86005 -0.668026
-0.245061 -0.871703 -0.704063
-0.265963 -0.881446 -0.672434
-0.266533 -0.882822 -0.67134
-0.267815 -0.856849 -0.679522
-0.263593 -0.87686 -0.675333
-0.262993 -0.877008 -0.676125
-0.263533 -0.875364 -0.675569
-0.278623 -0.831401 -0.7041
-0.276579 -0.833532 -0.70349
-0.276883 -0.833217 -0.702524
-0.262834 -0.86208 -0.684941
-0.263682 -0.860674 -0.684563
-0.263351 -0.861905 -0.684103
-0.263253 -0.866386 -0.680727
-0.263516 -0.865304 -0.681127
-0.263811 -0.866422 -0.679885
-0.283566 -0.829046 -0.698121
-0.285529 -0.828322 -0.698387
-0.401964 -0.832492 -0.676003
-0.402098 -0.832919 -0.676926
-0.402492 -0.834236 -0.676052
-0.275465 -0.839152 -0.685667
-0.275993 -0.83896 -0.684837
-0.270763 -0.849983 -0.67915
-0.271233 -0.84977 -0.678285
-0.267752 -0.873425 -0.667771
-0.268229 -0.873216 -0.666911
-0.271141 -0.865919 -0.669061
-0.2621 -0.855804 -0.699141
-0.261744 -0.857002 -0.698645
-0.375541 -0.892254 -0.692818
-0.376087 -0.891152 -0.693675
-0.374774 -0.892287 -0.693565
-0.347702 -0.917663 -0.680733
-0.265361 -0.895221 -0.670904
-0.265529 -0.895665 -0.671788
-0.264432 -0.893727 -0.672046
-0.272556 -0.866724 -0.666197
-0.358653 -0.810857 -0.74325
-0.359515 -0.810918 -0.742728
-0.274205 -0.850198 -0.672877
-0.270119 -0.867201 -0.66934
-0.270817 -0.867143 -0.668599
-0.270227 -0.868198 -0.668004
-0.269494 -0.868235 -0.66872
-0.268591 -0.870527 -0.66766
-0.268973 -0.869329 -0.668143
-0.269713 -0.869298 -0.66743
-0.26837 -0.871829 -0.667265
-0.266909 -0.889332 -0.664229
-0.299232 -0.822168 -0.697957
-0.36067 -0.812987 -0.738613
-0.402202 -0.833781 -0.675215
-0.346949 -0.917721 -0.681561
-0.357193 -0.833994 -0.668328
-0.357198 -0.832486 -0.668614
-0.357242 -0.830985 -0.668919
-0.357315 -0.829497 -0.669236
-0.357414 -0.828116 -0.669534
-0.357957 -0.826874 -0.670171
-0.358586 -0.825753 -0.670812
-0.359336 -0.824695 -0.671547
-0.360011 -0.82361 -0.672203
-0.360694 -0.822508 -0.672893
-0.361519 -0.821512 -0.673648
-0.362414 -0.820547 -0.674453
-0.363468 -0.819649 -0.675366
-0.364417 -0.818747 -0.676184
-0.365508 -0.817894 -0.677104
-0.366445 -0.816926 -0.677942
-0.36694 -0.815724 -0.678502
-0.367738 -0.81469 -0.679269
-0.368039 -0.813344 -0.679721
-0.368156 -0.811875 -0.680058
-0.36857 -0.810607 -0.68058
-0.369161 -0.809446 -0.681214
-0.369798 -0.80832 -0.681908
-0.370047 -0.80693 -0.682281
-0.369455 -0.811287 -0.692475
-0.369563 -0.811713 -0.693413
-0.370402 -0.810407 -0.693797
-0.323741 -0.900041 -0.634044
-0.324114 -0.898815 -0.634578
-0.324824 -0.897774 -0.635217
-0.248839 -0.878079 -0.690736
-0.277441 -0.832634 -0.704253
-0.277786 -0.832329 -0.703335
-0.268546 -0.852989 -0.680754
-0.269048 -0.851873 -0.681311
-0.269517 -0.851662 -0.680449
-0.271335 -0.846159 -0.683955
-0.272209 -0.844767 -0.683592
-0.263006 -0.886069 -0.674444
-0.263307 -0.887252 -0.673213
-0.281102 -0.841477 -0.675593
-0.247746 -0.869968 -0.701334
-0.248805 -0.868966 -0.702507
-0.245732 -0.870709 -0.704706
-0.264926 -0.860926 -0.71716
-0.26098 -0.886476 -0.68036
-0.260769 -0.884809 -0.680522
-0.261205 -0.886064 -0.679356
-0.271758 -0.844993 -0.684465
-0.280256 -0.829543 -0.705576
-0.279965 -0.829868 -0.706544
-0.261787 -0.865732 -0.683536
-0.26237 -0.865594 -0.682738
-0.263056 -0.863155 -0.683668
-0.262774 -0.864415 -0.683238
-0.265719 -0.889579 -0.665823
-0.265489 -0.890916 -0.66545
-0.263099 -0.872664 -0.676999
-0.263285 -0.87132 -0.677376
-0.263778 -0.871148 -0.676524
-0.271172 -0.848817 -0.679662
-0.271772 -0.848683 -0.678864
-0.272421 -0.856104 -0.670536
-0.278849 -0.832842 -0.696592
-0.279375 -0.831746 -0.697167
-0.279442 -0.832731 -0.695799
-0.361623 -0.803223 -0.738746
-0.362135 -0.801954 -0.739338
-0.362614 -0.801749 -0.738475
-0.278037 -0.831995 -0.70232
-0.283219 -0.839458 -0.67622
-0.283916 -0.839353 -0.675487
-0.362154 -0.803043 -0.737917
-0.351852 -0.811855 -0.731549
-0.277879 -0.856964 -0.664313
-0.277007 -0.856898 -0.664966
-0.272487 -0.871958 -0.663951
-0.27158 -0.876332 -0.663738
-0.360245 -0.793651 -0.753102
-0.360517 -0.793333 -0.752119
-0.272262 -0.87478 -0.663265
-0.358539 -0.807141 -0.734643
-0.27856 -0.845171 -0.675611
-0.279329 -0.844207 -0.676314
-0.279749 -0.844003 -0.675425
-0.267345 -0.890596 -0.663068
-0.269458 -0.867292 -0.670101
-0.268844 -0.868326 -0.669482
-0.269993 -0.866201 -0.670673
-0.270423 -0.860696 -0.672001
-0.270303 -0.864971 -0.671125
-0.270202 -0.887971 -0.661834
-0.270708 -0.857985 -0.672702
-0.411677 -0.835306 -0.757338
-0.411941 -0.834012 -0.757901
-0.411473 -0.835665 -0.758363
-0.267492 -0.886734 -0.665125
-0.266767 -0.890741 -0.663868
-0.368338 -0.818459 -0.725568
-0.356784 -0.83426 -0.669226
-0.356767 -0.832706 -0.669498
-0.356805 -0.831203 -0.669798
-0.356855 -0.829711 -0.670104
-0.357102 -0.828352 -0.670521
-0.357603 -0.827155 -0.671095
-0.358191 -0.82601 -0.671727
-0.358838 -0.824898 -0.672376
-0.359545 -0.823822 -0.673072
-0.360234 -0.82273 -0.673762
-0.361108 -0.821741 -0.674562
-0.362032 -0.820805 -0.675375
-0.362944 -0.819855 -0.676184
-0.363944 -0.818951 -0.677048
-0.365044 -0.818109 -0.677973
-0.365892 -0.817106 -0.678775
-0.366474 -0.815936 -0.679372
-0.367281 -0.814914 -0.68016
-0.367551 -0.813553 -0.680586
-0.367726 -0.812117 -0.680957
-0.368149 -0.810849 -0.68149
-0.368769 -0.809703 -0.682137
-0.369493 -0.808622 -0.682839
-0.366072 -0.794512 -0.735498
-0.274557 -0.878709 -0.659201
-0.322972 -0.900046 -0.634723
-0.323448 -0.898864 -0.635315
-0.324019 -0.897756 -0.635911
-0.364064 -0.79945 -0.751658
-0.363769 -0.800818 -0.751411
-0.364428 -0.800599 -0.750362
-0.262941 -0.887538 -0.674131
-0.260051 -0.878222 -0.68123
-0.260422 -0.877944 -0.680314
-0.260557 -0.87954 -0.68011
-0.246496 -0.869792 -0.705399
-0.356802 -0.808198 -0.750455
-0.247351 -0.868959 -0.70614
-0.247817 -0.868746 -0.705287
-0.279229 -0.866833 -0.657265
-0.401554 -0.831172 -0.676879
-0.401749 -0.831591 -0.677757
-0.261404 -0.889813 -0.680036
-0.261207 -0.888142 -0.680206
-0.261726 -0.889465 -0.679086
-0.260571 -0.883144 -0.680689
-0.260877 -0.882801 -0.67973
-0.261036 -0.884397 -0.679532
-0.388971 -0.867102 -0.662193
-0.245449 -0.89009 -0.710194
-0.245109 -0.888682 -0.711086
-0.244737 -0.888246 -0.710265
-0.244365 -0.879854 -0.713735
-0.244423 -0.878179 -0.713413
-0.261896 -0.866728 -0.682199
-0.261278 -0.866842 -0.682976
-0.359945 -0.800441 -0.745488
-0.259756 -0.875034 -0.681616
-0.259738 -0.873567 -0.681873
-0.260102 -0.874768 -0.680688
-0.280123 -0.830776 -0.697865
-0.280704 -0.830657 -0.697074
-0.280002 -0.831619 -0.696397
-0.262043 -0.856167 -0.696583
-0.26238 -0.854935 -0.697033
-0.274864 -0.849943 -0.67215
-0.297718 -0.82747 -0.689759
-0.298563 -0.826525 -0.690513
-0.298456 -0.827423 -0.689043
-0.262788 -0.853755 -0.69753
-0.266972 -0.866816 -0.674617
-0.362977 -0.798842 -0.739271
-0.362914 -0.80037 -0.738947
-0.300742 -0.888531 -0.638585
-0.267435 -0.8848 -0.667904
-0.26601 -0.88829 -0.666263
-0.401666 -0.829917 -0.677523
-0.402113 -0.835557 -0.722438
-0.267884 -0.872037 -0.668123
-0.270596 -0.881838 -0.665725
-0.274622 -0.846098 -0.677622
-0.273932 -0.847073 -0.676954
-0.273231 -0.848072 -0.676293
-0.271906 -0.851537 -0.674721
-0.27222 -0.850287 -0.675166
-0.272725 -0.849176 -0.67573
-0.279771 -0.880643 -0.732021
-0.278907 -0.880063 -0.731443
-0.278857 -0.881373 -0.730735
-0.356257 -0.834435 -0.670066
-0.35639 -0.832982 -0.670418
-0.356409 -0.831475 -0.67071
-0.3565 -0.830031 -0.671055
-0.35679 -0.828678 -0.671485
-0.357259 -0.827457 -0.672056
-0.35781 -0.826276 -0.672647
-0.358408 -0.825127 -0.673286
-0.359069 -0.824027 -0.673936
-0.359781 -0.822955 -0.674631
-0.360658 -0.821973 -0.675433
-0.361631 -0.821041 -0.676292
-0.362483 -0.820077 -0.677051
-0.36348 -0.819169 -0.677917
-0.364632 -0.818334 -0.67889
-0.365516 -0.81735 -0.679697
-0.366074 -0.816182 -0.680287
-0.366901 -0.815171 -0.681083
-0.367172 -0.813813 -0.681513
-0.367308 -0.812355 -0.681837
-0.367782 -0.811124 -0.682417
-0.368431 -0.809994 -0.683062
-0.369309 -0.80901 -0.683877
-0.369723 -0.807738 -0.684408
-0.369876 -0.806779 -0.68631
-0.346017 -0.866175 -0.724697
-0.345812 -0.867747 -0.724731
-0.286863 -0.884811 -0.735419
-0.285482 -0.88409 -0.735017
-0.360093 -0.814618 -0.719545
-0.360644 -0.814472 -0.718725
-0.322187 -0.900019 -0.635435
-0.323269 -0.897763 -0.636613
-0.324005 -0.896746 -0.637285
-0.362444 -0.825905 -0.694308
-0.357113 -0.805056 -0.742674
-0.357774 -0.804957 -0.741919
-0.400744 -0.822668 -0.738874
-0.40023 -0.822642 -0.738049
-0.400621 -0.823504 -0.739837
-0.260425 -0.881546 -0.680891
-0.260227 -0.879884 -0.681058
-0.260743 -0.881202 -0.679938
-0.28807 -0.825094 -0.703215
-0.365211 -0.802549 -0.730292
-0.365397 -0.802173 -0.72926
-0.261478 -0.887802 -0.679236
-0.280341 -0.892941 -0.653059
-0.246013 -0.891542 -0.70919
-0.245682 -0.891099 -0.708358
-0.245096 -0.889654 -0.709367
-0.260859 -0.868005 -0.68247
-0.261442 -0.867874 -0.681664
-0.264495 -0.863978 -0.680807
-0.263863 -0.864087 -0.681588
-0.268175 -0.883829 -0.668595
-0.266329 -0.887011 -0.666721
-0.363005 -0.797309 -0.739585
-0.274276 -0.844946 -0.678823
-0.275004 -0.844894 -0.678097
-0.402981 -0.823224 -0.693857
-0.403259 -0.822008 -0.694329
-0.402422 -0.82357 -0.695076
-0.26845 -0.882512 -0.669039
-0.360142 -0.80548 -0.737302
-0.361543 -0.804255 -0.73727
-0.36074 -0.805378 -0.73651
-0.359781 -0.806354 -0.735659
-0.270086 -0.879994 -0.665695
-0.352152 -0.810216 -0.75088
-0.350934 -0.810481 -0.751264
-0.362343 -0.822574 -0.688223
-0.361467 -0.823189 -0.687944
-0.362171 -0.8231 -0.688967
-0.35169 -0.812055 -0.732643
-0.268145 -0.870769 -0.66854
-0.36121 -0.793373 -0.747651
-0.361137 -0.794871 -0.747331
-0.361044 -0.796394 -0.747003
-0.361526 -0.792048 -0.748136
-0.349324 -0.923815 -0.678861
-0.349544 -0.922353 -0.678927
-0.348773 -0.922323 -0.679609
-0.279203 -0.845069 -0.674843
-0.376545 -0.833261 -0.707797
-0.349059 -0.811114 -0.739159
-0.355699 -0.834596 -0.670883
-0.354957 -0.835632 -0.670168
-0.355947 -0.833211 -0.671303
-0.35597 -0.831698 -0.67159
-0.356058 -0.830263 -0.671917
-0.356419 -0.828954 -0.672406
-0.356869 -0.827708 -0.672938
-0.357436 -0.826551 -0.673569
-0.357966 -0.825358 -0.674158
-0.358651 -0.824262 -0.674847
-0.359378 -0.823195 -0.675545
-0.360213 -0.822208 -0.676304
-0.361168 -0.821262 -0.677163
-0.362091 -0.82032 -0.677973
-0.363088 -0.819413 -0.678838
-0.364199 -0.818585 -0.679761
-0.365155 -0.817635 -0.680624
-0.365695 -0.816452 -0.681212
-0.366468 -0.815402 -0.681962
-0.366902 -0.81415 -0.682497
-0.3671 -0.812731 -0.682867
-0.367549 -0.811477 -0.683397
-0.367327 -0.812475 -0.684261
-0.368272 -0.810393 -0.684095
-0.36959 -0.808138 -0.685448
-0.369337 -0.808503 -0.686488
-0.272908 -0.844097 -0.719531
-0.398787 -0.837181 -0.726583
-0.31803 -0.929231 -0.701969
-0.319012 -0.929466 -0.701665
-0.318936 -0.93018 -0.70337
-0.317956 -0.929948 -0.703678
-0.322502 -0.897754 -0.637291
-0.323193 -0.896728 -0.637973
-0.323792 -0.895634 -0.638605
-0.401774 -0.830344 -0.678449
-0.261998 -0.891201 -0.678961
-0.262274 -0.890782 -0.677975
-0.246026 -0.874971 -0.715725
-0.245205 -0.875727 -0.714433
-0.261628 -0.887321 -0.678184
-0.261884 -0.888983 -0.678037
-0.282265 -0.829243 -0.699641
-0.283363 -0.828447 -0.700546
-0.282977 -0.829133 -0.698915
-0.247822 -0.880263 -0.719389
-0.367248 -0.817363 -0.728357
-0.36824 -0.817574 -0.727493
-0.368974 -0.816684 -0.728862
-0.359225 -0.796651 -0.753064
-0.359636 -0.795329 -0.753602
-0.258282 -0.902694 -0.694791
-0.258348 -0.902065 -0.692998
-0.259236 -0.903274 -0.693767
-0.25858 -0.868163 -0.698113
-0.362829 -0.893864 -0.699424
-0.36188 -0.89367 -0.699702
-0.246605 -0.892685 -0.707141
-0.260591 -0.869281 -0.682047
-0.275569 -0.843103 -0.722632
-0.274592 -0.844237 -0.7224
-0.264179 -0.862847 -0.682036
-0.281497 -0.830617 -0.69639
-0.28252 -0.829804 -0.697243
-0.348733 -0.808129 -0.744871
-0.349134 -0.80791 -0.743956
-0.359416 -0.802777 -0.743459
-0.27387 -0.857457 -0.668826
-0.273746 -0.85593 -0.669019
-0.273926 -0.846108 -0.678311
-0.40205 -0.828699 -0.678034
-0.402155 -0.829126 -0.678959
-0.271511 -0.847588 -0.68012
-0.272197 -0.847486 -0.67935
-0.281593 -0.840866 -0.677286
-0.281815 -0.840065 -0.678822
-0.269416 -0.878003 -0.665605
-0.268418 -0.869489 -0.668966
-0.270493 -0.859286 -0.672311
-0.279557 -0.83592 -0.685424
-0.280488 -0.835095 -0.686229
-0.277953 -0.837748 -0.683956
-0.29535 -0.888523 -0.643466
-0.275959 -0.84078 -0.681993
-0.275309 -0.841812 -0.681358
-0.273571 -0.844997 -0.679549
-0.274162 -0.843945 -0.680161
-0.274732 -0.842874 -0.680756
-0.333348 -0.916238 -0.704967
-0.355533 -0.833473 -0.672199
-0.35552 -0.831921 -0.672466
-0.355688 -0.830526 -0.67285
-0.356081 -0.829266 -0.673369
-0.356563 -0.828031 -0.67391
-0.357124 -0.826863 -0.674541
-0.357568 -0.825613 -0.675074
-0.358209 -0.824494 -0.67572
-0.358941 -0.823437 -0.676418
-0.359813 -0.822451 -0.67722
-0.360717 -0.821494 -0.678029
-0.361714 -0.820588 -0.678894
-0.362715 -0.819684 -0.679761
-0.364866 -0.817956 -0.681608
-0.365431 -0.816791 -0.682194
-0.366191 -0.815736 -0.68295
-0.366723 -0.814541 -0.683539
-0.36706 -0.8132 -0.683953
-0.366924 -0.814323 -0.684613
-0.366216 -0.815602 -0.684252
-0.269429 -0.844098 -0.68794
-0.27009 -0.843092 -0.68859
-0.270141 -0.844033 -0.68718
-0.269939 -0.851414 -0.679549
-0.269545 -0.852599 -0.679054
-0.401301 -0.835787 -0.669669
-0.287678 -0.888533 -0.650452
-0.263208 -0.852585 -0.698027
-0.279654 -0.844841 -0.673967
-0.393342 -0.817155 -0.707348
-0.393386 -0.816764 -0.706025
-0.392389 -0.817444 -0.707213
-0.290708 -0.823308 -0.70415
-0.291575 -0.82298 -0.703882
-0.361388 -0.815031 -0.734641
-0.259232 -0.880851 -0.683882
-0.259125 -0.879257 -0.684101
-0.377778 -0.875514 -0.653511
-0.37871 -0.875985 -0.654128
-0.261429 -0.885655 -0.67835
-0.301127 -0.886306 -0.640512
-0.311752 -0.878775 -0.74056
-0.312449 -0.880577 -0.740329
-0.312806 -0.878681 -0.740434
-0.363624 -0.802462 -0.735358
-0.266108 -0.860188 -0.68141
-0.266698 -0.861502 -0.680342
-0.360922 -0.898508 -0.691818
-0.359977 -0.898362 -0.692129
-0.359078 -0.899054 -0.690398
-0.348281 -0.808788 -0.750004
-0.348538 -0.807908 -0.748471
-0.348286 -0.809853 -0.74832
-0.273635 -0.838166 -0.691971
-0.266753 -0.846395 -0.691809
-0.278354 -0.858273 -0.663197
-0.259841 -0.864462 -0.705892
-0.271875 -0.862999 -0.668883
-0.258872 -0.866909 -0.69856
-0.263353 -0.860396 -0.713257
-0.262804 -0.861611 -0.712817
-0.26037 -0.870581 -0.681647
-0.261125 -0.869104 -0.681191
-0.245382 -0.886467 -0.713373
-0.264689 -0.861737 -0.682603
-0.280672 -0.831557 -0.695653
-0.351163 -0.80651 -0.746885
-0.348314 -0.808937 -0.74322
-0.349853 -0.807272 -0.745819
-0.353588 -0.804796 -0.74889
-0.354537 -0.803805 -0.749735
-0.355377 -0.802731 -0.750515
-0.355947 -0.802585 -0.749709
-0.355181 -0.803684 -0.748971
-0.367857 -0.814687 -0.733038
-0.272114 -0.865512 -0.667347
-0.274679 -0.841 -0.683542
-0.274126 -0.841162 -0.684361
-0.275269 -0.839942 -0.684151
-0.27473 -0.840118 -0.684976
-0.274121 -0.842089 -0.682953
-0.273576 -0.842255 -0.683775
-0.271912 -0.846409 -0.680617
-0.272526 -0.846283 -0.679828
-0.272489 -0.845343 -0.681214
-0.273006 -0.845156 -0.680371
-0.283442 -0.832655 -0.688735
-0.282418 -0.833449 -0.687876
-0.364417 -0.818937 -0.724086
-0.36347 -0.818664 -0.723904
-0.278997 -0.836078 -0.686233
-0.278084 -0.83693 -0.685441
-0.281766 -0.833546 -0.688641
-0.280838 -0.834387 -0.687835
-0.279916 -0.835231 -0.687032
-0.282799 -0.832771 -0.689498
-0.333018 -0.918001 -0.704418
-0.333643 -0.917733 -0.703401
-0.332985 -0.916845 -0.70638
-0.354985 -0.83364 -0.673021
-0.355057 -0.832145 -0.673333
-0.355247 -0.830747 -0.673727
-0.355693 -0.829535 -0.674288
-0.356283 -0.828363 -0.674885
-0.356741 -0.827115 -0.675423
-0.357153 -0.825857 -0.675948
-0.357848 -0.824774 -0.676641
-0.358637 -0.823746 -0.67739
-0.359381 -0.822701 -0.67809
-0.360287 -0.821747 -0.678895
-0.362479 -0.820143 -0.681729
-0.364602 -0.818302 -0.682591
-0.365266 -0.817194 -0.683228
-0.365886 -0.816048 -0.683872
-0.357147 -0.811718 -0.722963
-0.357777 -0.81163 -0.722184
-0.261217 -0.865881 -0.684345
-0.351805 -0.809828 -0.730683
-0.263171 -0.858493 -0.687079
-0.269878 -0.850449 -0.680916
-0.357248 -0.801291 -0.749616
-0.266125 -0.84887 -0.690913
-0.369956 -0.824049 -0.705874
-0.370473 -0.824468 -0.706613
-0.369572 -0.823278 -0.707556
-0.273741 -0.875668 -0.660431
-0.276164 -0.84883 -0.672024
-0.27542 -0.849782 -0.671331
-0.354695 -0.802121 -0.762012
-0.353749 -0.803071 -0.760732
-0.27063 -0.839959 -0.701823
-0.271427 -0.839016 -0.702584
-0.269911 -0.840934 -0.701167
-0.259301 -0.88239 -0.683647
-0.269167 -0.841902 -0.700466
-0.261326 -0.884055 -0.678572
-0.390397 -0.857399 -0.666923
-0.279316 -0.858779 -0.734343
-0.279958 -0.857571 -0.734723
-0.279176 -0.857029 -0.734134
-0.259137 -0.865611 -0.698958
-0.260128 -0.863195 -0.706345
-0.275576 -0.834775 -0.700095
-0.343108 -0.831156 -0.693344
-0.36457 -0.800022 -0.732782
-0.364583 -0.798443 -0.733062
-0.391051 -0.82891 -0.649787
-0.391727 -0.82939 -0.650491
-0.24566 -0.887643 -0.696583
-0.245327 -0.885951 -0.69668
-0.359809 -0.89904 -0.68956
-0.277973 -0.891618 -0.655423
-0.284718 -0.920039 -0.708609
-0.283664 -0.91858 -0.707594
-0.24447 -0.877923 -0.697575
-0.259735 -0.863105 -0.699853
-0.259434 -0.864354 -0.699406
-0.245259 -0.885118 -0.71415
-0.364002 -0.802202 -0.734436
-0.260895 -0.870414 -0.680813
-0.26067 -0.871719 -0.680415
-0.368908 -0.817932 -0.696338
-0.368891 -0.817552 -0.695371
-0.264978 -0.860487 -0.683031
-0.265559 -0.860341 -0.682233
-0.280112 -0.83266 -0.695061
-0.280838 -0.832595 -0.694343
-0.352463 -0.805698 -0.747942
-0.356195 -0.801636 -0.751286
-0.275517 -0.837852 -0.689646
-0.276418 -0.836039 -0.691841
-0.276271 -0.8369 -0.690353
-0.277025 -0.835954 -0.69105
-0.278014 -0.835137 -0.691886
-0.277429 -0.835252 -0.692688
-0.273981 -0.83883 -0.689628
-0.274685 -0.838759 -0.6889
-0.279061 -0.834395 -0.692757
-0.273223 -0.839772 -0.688923
-0.273865 -0.839671 -0.688156
-0.361099 -0.802313 -0.741019
-0.272542 -0.840763 -0.688264
-0.273112 -0.840621 -0.687457
-0.351673 -0.808725 -0.732038
-0.356898 -0.800468 -0.751989
-0.357592 -0.799322 -0.75267
-0.358088 -0.799118 -0.751837
-0.358279 -0.798149 -0.753375
-0.358698 -0.797912 -0.752463
-0.273142 -0.843411 -0.683264
-0.27357 -0.843173 -0.682371
-0.273548 -0.844072 -0.680951
-0.273071 -0.844285 -0.681817
-0.274096 -0.842987 -0.681538
-0.301129 -0.82169 -0.697145
-0.273435 -0.847274 -0.677803
-0.270492 -0.885736 -0.663715
-0.272051 -0.879726 -0.663433
-0.268716 -0.842762 -0.706147
-0.268092 -0.843852 -0.707129
-0.270621 -0.848977 -0.680485
-0.270313 -0.85022 -0.68004
-0.269208 -0.853829 -0.678596
-0.269037 -0.85518 -0.678231
-0.26914 -0.85809 -0.677739
-0.26906 -0.856612 -0.677965
-0.268975 -0.85944 -0.677376
-0.369522 -0.807885 -0.688308
-0.369785 -0.807148 -0.687633
-0.354643 -0.832404 -0.674237
-0.354936 -0.831073 -0.674695
-0.355454 -0.829886 -0.675275
-0.356044 -0.828736 -0.675909
-0.356367 -0.827358 -0.676352
-0.356832 -0.826165 -0.676919
-0.357539 -0.825087 -0.677615
-0.35835 -0.824071 -0.678366
-0.359054 -0.822984 -0.679066
-0.359982 -0.822047 -0.679873
-0.247061 -0.893359 -0.704202
-0.246906 -0.892985 -0.703259
-0.360746 -0.821561 -0.681073
-0.248932 -0.895025 -0.699882
-0.24987 -0.895853 -0.698242
-0.364456 -0.818725 -0.683622
-0.396498 -0.836178 -0.723649
-0.272613 -0.879574 -0.662622
-0.282659 -0.842026 -0.729307
-0.281781 -0.842653 -0.729047
-0.281822 -0.843384 -0.729658
-0.356741 -0.805916 -0.741024
-0.26646 -0.862798 -0.679938
-0.265741 -0.862838 -0.680663
-0.262582 -0.860989 -0.686199
-0.262863 -0.859736 -0.686632
-0.356567 -0.80244 -0.748932
-0.352362 -0.80867 -0.731298
-0.274397 -0.837226 -0.692672
-0.275251 -0.836355 -0.693425
-0.266728 -0.865735 -0.675885
-0.339885 -0.901759 -0.656231
-0.403323 -0.837635 -0.683491
-0.360537 -0.8172 -0.724816
-0.262414 -0.862331 -0.685837
-0.26366 -0.872511 -0.676184
-0.274428 -0.85875 -0.66774
-0.273796 -0.858863 -0.66851
-0.274733 -0.857519 -0.668173
-0.348976 -0.90312 -0.666605
-0.349592 -0.902803 -0.667493
-0.349465 -0.90401 -0.666858
-0.273114 -0.837537 -0.697871
-0.273949 -0.836623 -0.698623
-0.267937 -0.864565 -0.67571
-0.267407 -0.865666 -0.675144
-0.27215 -0.849323 -0.676541
-0.26605 -0.84683 -0.703528
-0.260188 -0.861971 -0.7004
-0.260539 -0.860733 -0.700848
-0.387524 -0.880224 -0.668812
-0.387246 -0.879805 -0.667961
-0.388592 -0.879098 -0.669018
-0.278661 -0.859325 -0.661967
-0.26633 -0.88948 -0.665031
-0.260567 -0.873087 -0.680091
-0.265012 -0.859068 -0.683323
-0.280133 -0.833579 -0.693654
-0.272465 -0.841644 -0.686816
-0.271976 -0.842763 -0.686266
-0.267849 -0.846468 -0.687637
-0.268301 -0.845323 -0.688161
-0.268878 -0.845181 -0.687359
-0.267573 -0.847736 -0.687206
-0.268555 -0.846415 -0.686904
-0.268244 -0.847652 -0.686457
-0.267045 -0.850277 -0.686368
-0.267375 -0.849048 -0.686824
-0.268008 -0.848942 -0.68605
-0.267635 -0.850138 -0.685573
-0.268833 -0.84424 -0.688736
-0.269514 -0.84323 -0.689395
-0.270257 -0.842269 -0.690091
-0.270773 -0.842102 -0.689249
-0.270932 -0.841271 -0.690745
-0.271441 -0.841097 -0.6899
-0.270525 -0.847592 -0.68436
-0.269922 -0.847718 -0.685143
-0.270823 -0.846345 -0.684798
-0.270122 -0.848771 -0.683865
-0.271269 -0.84519 -0.685305
-0.269704 -0.849938 -0.683343
-0.269062 -0.850961 -0.682721
-0.35884 -0.796911 -0.753985
-0.272043 -0.845576 -0.682091
-0.272618 -0.844513 -0.682689
-0.274674 -0.841924 -0.682134
-0.28147 -0.834261 -0.687063
-0.361769 -0.816688 -0.730183
-0.27152 -0.874808 -0.663974
-0.272266 -0.881389 -0.663275
-0.272715 -0.865374 -0.666562
-0.263528 -0.888329 -0.671914
-0.263766 -0.887963 -0.670933
-0.264017 -0.885688 -0.672756
-0.264345 -0.88442 -0.673219
-0.265014 -0.884339 -0.672465
-0.263697 -0.886969 -0.672301
-0.264116 -0.8867 -0.671405
-0.264602 -0.883089 -0.673647
-0.264779 -0.881696 -0.674041
-0.265502 -0.881665 -0.673308
-0.26461 -0.885553 -0.67196
-0.264598 -0.880083 -0.674201
-0.26431 -0.878357 -0.67432
-0.26533 -0.883063 -0.672923
-0.264094 -0.876709 -0.674477
-0.26531 -0.879996 -0.673479
-0.354399 -0.832765 -0.675252
-0.353868 -0.833909 -0.674654
-0.354876 -0.831533 -0.675774
-0.355419 -0.830389 -0.676417
-0.355748 -0.829065 -0.676889
-0.356079 -0.827675 -0.67731
-0.356591 -0.826519 -0.677897
-0.35728 -0.82543 -0.678594
-0.358065 -0.824398 -0.679346
-0.358757 -0.823324 -0.679981
-0.359794 -0.822433 -0.680907
-0.270154 -0.850033 -0.720999
-0.270911 -0.848865 -0.721339
-0.269869 -0.849606 -0.720146
-0.272689 -0.846541 -0.721897
-0.269428 -0.85122 -0.720644
-0.266526 -0.859926 -0.680518
-0.343053 -0.898043 -0.70104
-0.26906 -0.852799 -0.679911
-0.265136 -0.852568 -0.689557
-0.271736 -0.889485 -0.66017
-0.272282 -0.838447 -0.697123
-0.265182 -0.885406 -0.671156
-0.265685 -0.884263 -0.671719
-0.266094 -0.869129 -0.673578
-0.26649 -0.867942 -0.674073
-0.279446 -0.883216 -0.730728
-0.24437 -0.879356 -0.697249
-0.278702 -0.856984 -0.663655
-0.24668 -0.877272 -0.694296
-0.245039 -0.884277 -0.696797
-0.246407 -0.880032 -0.693594
-0.246479 -0.878603 -0.693915
-0.269105 -0.847702 -0.685805
-0.272202 -0.838069 -0.703291
-0.265971 -0.882973 -0.672153
-0.276882 -0.839544 -0.72044
-0.277176 -0.839965 -0.721298
-0.278055 -0.838425 -0.720588
-0.260944 -0.85955 -0.701345
-0.261247 -0.858299 -0.701791
-0.262298 -0.85463 -0.703182
-0.263374 -0.852998 -0.706433
-0.263424 -0.852636 -0.70543
-0.273051 -0.837165 -0.704053
-0.260206 -0.876265 -0.680463
-0.260806 -0.877672 -0.679401
-0.264997 -0.857604 -0.683585
-0.271604 -0.843964 -0.685776
-0.271629 -0.840293 -0.691406
-0.272413 -0.83934 -0.692135
-0.272903 -0.839144 -0.691279
-0.379993 -0.862398 -0.703372
-0.379481 -0.86094 -0.704232
-0.368903 -0.869656 -0.646058
-0.368023 -0.870289 -0.646049
-0.368037 -0.869232 -0.645789
-0.262684 -0.89266 -0.677937
-0.354908 -0.868083 -0.718061
-0.348182 -0.897528 -0.699951
-0.349163 -0.897756 -0.699765
-0.348807 -0.896536 -0.70103
-0.350865 -0.911664 -0.678746
-0.276518 -0.853251 -0.731183
-0.361732 -0.862706 -0.715722
-0.361723 -0.864149 -0.715778
-0.384841 -0.8741 -0.659978
-0.276319 -0.835584 -0.694316
-0.275871 -0.83583 -0.695181
-0.277362 -0.834822 -0.695186
-0.274796 -0.836589 -0.694287
-0.276939 -0.83503 -0.696084
-0.277709 -0.834078 -0.696798
-0.278221 -0.833915 -0.695957
-0.268473 -0.852014 -0.682115
-0.278288 -0.832992 -0.697402
-0.359288 -0.795605 -0.754531
-0.275315 -0.840889 -0.682768
-0.277309 -0.837852 -0.684727
-0.355237 -0.808302 -0.732132
-0.352926 -0.808533 -0.730489
-0.357046 -0.807854 -0.733477
-0.267758 -0.85969 -0.678966
-0.272921 -0.864068 -0.666947
-0.26654 -0.857042 -0.681064
-0.266754 -0.85574 -0.681455
-0.267347 -0.855602 -0.68066
-0.267181 -0.856947 -0.680298
-0.266437 -0.858445 -0.680729
-0.267064 -0.858306 -0.679967
-0.2671 -0.859819 -0.679704
-0.267216 -0.861339 -0.679501
-0.267051 -0.862659 -0.679145
-0.266567 -0.863783 -0.678597
-0.265916 -0.863874 -0.679359
-0.261869 -0.855893 -0.703055
-0.344534 -0.864324 -0.72545
-0.345605 -0.864377 -0.724929
-0.3549 -0.832086 -0.676932
-0.355235 -0.830802 -0.677453
-0.355454 -0.8294 -0.677866
-0.355816 -0.828084 -0.678342
-0.356432 -0.826925 -0.678927
-0.357086 -0.825819 -0.679626
-0.357818 -0.824754 -0.680321
-0.358629 -0.823739 -0.681076
-0.372579 -0.8052 -0.676566
-0.244104 -0.887342 -0.708594
-0.243745 -0.885556 -0.708494
-0.258402 -0.870783 -0.693787
-0.26757 -0.843868 -0.702646
-0.270327 -0.892038 -0.659847
-0.266434 -0.846029 -0.701493
-0.26695 -0.844914 -0.702044
-0.408003 -0.819887 -0.742978
-0.264199 -0.850345 -0.699116
-0.260363 -0.86191 -0.696808
-0.261817 -0.85627 -0.703902
-0.262191 -0.85509 -0.704247
-0.278983 -0.858089 -0.66242
-0.279355 -0.856893 -0.662897
-0.24574 -0.872932 -0.699377
-0.268358 -0.842829 -0.69972
-0.265729 -0.885246 -0.670332
-0.263377 -0.862486 -0.714518
-0.378599 -0.874029 -0.701378
-0.377847 -0.874093 -0.702205
-0.377391 -0.875295 -0.7015
-0.263076 -0.862043 -0.713675
-0.276343 -0.83346 -0.70705
-0.277269 -0.83259 -0.707868
-0.27549 -0.834367 -0.706288
-0.274672 -0.83531 -0.705526
-0.273894 -0.836253 -0.704816
-0.378221 -0.875283 -0.700812
-0.260568 -0.874558 -0.67982
-0.260616 -0.876057 -0.679569
-0.265133 -0.856245 -0.683935
-0.273166 -0.838385 -0.692832
-0.273938 -0.837457 -0.693537
-0.355173 -0.800797 -0.758087
-0.258897 -0.874648 -0.684813
-0.259038 -0.877659 -0.684321
-0.258964 -0.876133 -0.684572
-0.25884 -0.873118 -0.685031
-0.258985 -0.871764 -0.685384
-0.259149 -0.870415 -0.68574
-0.259327 -0.869105 -0.686127
-0.259623 -0.867857 -0.686572
-0.36194 -0.81713 -0.728602
-0.275727 -0.860877 -0.664561
-0.34387 -0.830884 -0.684377
-0.275963 -0.867837 -0.662191
-0.276578 -0.867703 -0.66142
-0.369629 -0.894622 -0.6658
-0.368595 -0.894921 -0.664983
-0.370054 -0.893888 -0.664531
-0.264793 -0.8493 -0.699757
-0.267959 -0.853118 -0.681547
-0.278824 -0.831908 -0.697978
-0.359981 -0.793978 -0.754085
-0.267608 -0.854337 -0.681076
-0.276574 -0.838826 -0.684035
-0.27272 -0.848252 -0.677132
-0.272219 -0.848446 -0.677983
-0.272847 -0.847411 -0.678606
-0.273182 -0.846199 -0.679067
-0.270705 -0.886829 -0.662402
-0.267746 -0.861148 -0.678676
-0.275687 -0.863266 -0.662859
-0.40828 -0.831358 -0.763707
-0.263936 -0.869795 -0.676882
-0.286079 -0.826295 -0.704073
-0.284806 -0.826996 -0.703055
-0.246991 -0.889294 -0.714831
-0.285437 -0.826414 -0.704834
-0.28415 -0.905631 -0.7252
-0.282689 -0.904943 -0.724984
-0.258093 -0.872035 -0.693343
-0.283223 -0.852463 -0.735042
-0.282529 -0.852058 -0.734366
-0.398447 -0.832778 -0.738116
-0.354722 -0.832498 -0.677967
-0.355007 -0.831144 -0.67843
-0.355184 -0.829734 -0.678846
-0.355662 -0.828489 -0.679376
-0.356331 -0.827269 -0.679964
-0.356889 -0.826195 -0.680596
-0.357635 -0.825144 -0.681355
-0.358468 -0.824149 -0.682103
-0.276327 -0.841536 -0.721982
-0.357463 -0.825545 -0.682387
-0.358373 -0.824597 -0.683194
-0.275337 -0.842657 -0.72176
-0.277473 -0.840385 -0.722155
-0.277464 -0.861096 -0.733749
-0.277629 -0.859402 -0.733409
-0.287614 -0.893307 -0.646739
-0.28676 -0.892791 -0.64783
-0.287937 -0.892159 -0.647475
-0.300442 -0.887342 -0.639841
-0.26174 -0.86501 -0.712114
-0.354331 -0.801869 -0.75731
-0.353138 -0.803176 -0.757354
-0.265179 -0.863917 -0.680073
-0.260714 -0.860676 -0.697257
-0.344211 -0.900872 -0.645428
-0.343748 -0.901298 -0.646573
-0.345364 -0.902598 -0.645246
-0.264633 -0.873173 -0.720248
-0.370016 -0.893384 -0.663604
-0.368685 -0.894122 -0.663618
-0.30317 -0.870387 -0.649884
-0.258469 -0.878406 -0.686268
-0.364082 -0.800677 -0.734766
-0.246853 -0.884815 -0.693014
-0.24651 -0.881583 -0.693373
-0.246647 -0.883137 -0.693171
-0.250381 -0.877264 -0.721211
-0.267585 -0.843771 -0.699024
-0.331919 -0.827412 -0.696372
-0.37921 -0.878156 -0.699066
-0.378784 -0.876811 -0.700141
-0.265357 -0.864952 -0.678773
-0.30421 -0.832475 -0.730547
-0.262498 -0.854621 -0.699636
-0.278943 -0.831104 -0.703132
-0.259878 -0.87659 -0.681405
-0.349589 -0.811653 -0.739727
-0.261171 -0.882455 -0.678769
-0.364165 -0.796005 -0.735648
-0.265411 -0.854991 -0.684367
-0.263765 -0.878506 -0.675147
-0.263933 -0.880105 -0.674964
-0.276613 -0.866287 -0.661702
-0.260913 -0.864368 -0.688113
-0.261323 -0.863189 -0.688613
-0.273376 -0.886149 -0.661906
-0.272641 -0.887126 -0.661241
-0.261687 -0.861992 -0.689099
-0.266894 -0.844767 -0.698377
-0.266348 -0.84586 -0.69778
-0.265867 -0.846986 -0.697237
-0.265417 -0.848128 -0.696696
-0.264992 -0.849298 -0.696198
-0.26458 -0.850476 -0.695701
-0.260008 -0.866664 -0.687067
-0.260443 -0.865498 -0.687571
-0.262412 -0.858116 -0.69031
-0.262071 -0.859348 -0.689855
-0.262826 -0.85694 -0.69081
-0.263233 -0.855761 -0.691307
-0.402329 -0.827553 -0.678549
-0.402404 -0.827879 -0.679515
-0.283675 -0.827731 -0.702134
-0.271641 -0.849516 -0.677385
-0.269736 -0.886701 -0.663024
-0.266529 -0.8881 -0.665434
-0.261734 -0.857409 -0.696133
-0.318145 -0.908823 -0.654014
-0.319124 -0.909108 -0.653635
-0.319048 -0.909833 -0.655141
-0.388622 -0.833049 -0.709147
-0.38388 -0.851715 -0.701555
-0.384797 -0.851857 -0.7012
-0.384325 -0.850448 -0.702151
-0.279182 -0.845971 -0.673425
-0.266436 -0.859362 -0.719824
-0.266672 -0.857693 -0.719428
-0.354319 -0.832691 -0.678913
-0.385971 -0.870697 -0.694701
-0.386609 -0.870516 -0.693627
-0.38615 -0.869114 -0.694595
-0.39074 -0.841856 -0.656686
-0.391667 -0.8413 -0.657151
-0.391752 -0.841693 -0.6581
-0.354788 -0.831514 -0.679455
-0.355085 -0.83019 -0.679932
-0.355523 -0.82893 -0.680468
-0.356125 -0.827779 -0.681114
-0.35683 -0.826677 -0.681748
-0.359 -0.823873 -0.683079
-0.278493 -0.859952 -0.734004
-0.278368 -0.858209 -0.733772
-0.269671 -0.841406 -0.70584
-0.272485 -0.911736 -0.697744
-0.271521 -0.911256 -0.698565
-0.314791 -0.880108 -0.740432
-0.315799 -0.880091 -0.74054
-0.368124 -0.816628 -0.729391
-0.385996 -0.838124 -0.706922
-0.392284 -0.841615 -0.702436
-0.391863 -0.840253 -0.703514
-0.363855 -0.796352 -0.736643
-0.364063 -0.797552 -0.735339
-0.245286 -0.874077 -0.698847
-0.266966 -0.875456 -0.669316
-0.39422 -0.834038 -0.711606
-0.271519 -0.911099 -0.702167
-0.261113 -0.858759 -0.702938
-0.260745 -0.859948 -0.702361
-0.261039 -0.859177 -0.703973
-0.37739 -0.806935 -0.665669
-0.267575 -0.862488 -0.678309
-0.247118 -0.886493 -0.692888
-0.26371 -0.868719 -0.678158
-0.264155 -0.868495 -0.677277
-0.248512 -0.889582 -0.692185
-0.247647 -0.888392 -0.69291
-0.248035 -0.888112 -0.691998
-0.276802 -0.835388 -0.693458
-0.28348 -0.840935 -0.672426
-0.264126 -0.851619 -0.695162
-0.263659 -0.852752 -0.69462
-0.26326 -0.853935 -0.694123
-0.26285 -0.855111 -0.693625
-0.26217 -0.857569 -0.692715
-0.262463 -0.856297 -0.693128
-0.355995 -0.799709 -0.758863
-0.260929 -0.879259 -0.679192
-0.261062 -0.880857 -0.678988
-0.265745 -0.853758 -0.684823
-0.266118 -0.852552 -0.685298
-0.264059 -0.875207 -0.674733
-0.266671 -0.852395 -0.684483
-0.391441 -0.861216 -0.668041
-0.391579 -0.862885 -0.668282
-0.261855 -0.860648 -0.689458
-0.261574 -0.860059 -0.691825
-0.261281 -0.861336 -0.691414
-0.261881 -0.858817 -0.692271
-0.280097 -0.848823 -0.668603
-0.271478 -0.867062 -0.66784
-0.275372 -0.913009 -0.698841
-0.260541 -0.863724 -0.69043
-0.260148 -0.86491 -0.689935
-0.260942 -0.86254 -0.690928
-0.259726 -0.866083 -0.689434
-0.263633 -0.854582 -0.691808
-0.397188 -0.831582 -0.662736
-0.264884 -0.851075 -0.693338
-0.26527 -0.849884 -0.69383
-0.282693 -0.828511 -0.701295
-0.264615 -0.868277 -0.676405
-0.264319 -0.869525 -0.675967
-0.264146 -0.870871 -0.675598
-0.269315 -0.887891 -0.662491
-0.271622 -0.850423 -0.675967
-0.271116 -0.850615 -0.676818
-0.273158 -0.882964 -0.662369
-0.266904 -0.886868 -0.665917
-0.265989 -0.864844 -0.677998
-0.286856 -0.825683 -0.705641
-0.245753 -0.874523 -0.714864
-0.246372 -0.873345 -0.715265
-0.381533 -0.871127 -0.699675
-0.381799 -0.869598 -0.699716
-0.381075 -0.869726 -0.700644
-0.265644 -0.848692 -0.694322
-0.265999 -0.84747 -0.694779
-0.266399 -0.84629 -0.695273
-0.266862 -0.845154 -0.695817
-0.268122 -0.843081 -0.69706
-0.267405 -0.844059 -0.696368
-0.266302 -0.868231 -0.722279
-0.355013 -0.830654 -0.681029
-0.355499 -0.82943 -0.681615
-0.356014 -0.828207 -0.682144
-0.356709 -0.827103 -0.682773
-0.357386 -0.826006 -0.683475
-0.358341 -0.825078 -0.684351
-0.269631 -0.849164 -0.719275
-0.268894 -0.850346 -0.718922
-0.244405 -0.8878 -0.709433
-0.266291 -0.88415 -0.670925
-0.340431 -0.931205 -0.700157
-0.271371 -0.839077 -0.706244
-0.281082 -0.849873 -0.666627
-0.296602 -0.887346 -0.643332
-0.283525 -0.843876 -0.668224
-0.284257 -0.843718 -0.667542
-0.321157 -0.928181 -0.698366
-0.36062 -0.806916 -0.732433
-0.259966 -0.870843 -0.682552
-0.36174 -0.806025 -0.733379
-0.357516 -0.808211 -0.73004
-0.358276 -0.808182 -0.729342
-0.40776 -0.824726 -0.754405
-0.409009 -0.823805 -0.755591
-0.40907 -0.823398 -0.75458
-0.402551 -0.823522 -0.742799
-0.301303 -0.837089 -0.677373
-0.362363 -0.821449 -0.685696
-0.271234 -0.892168 -0.659207
-0.270444 -0.892839 -0.659217
-0.353892 -0.873931 -0.717564
-0.3623 -0.895797 -0.696419
-0.363204 -0.895949 -0.696026
-0.36309 -0.89494 -0.697897
-0.363145 -0.804819 -0.733349
-0.261084 -0.859481 -0.697752
-0.354979 -0.814259 -0.730514
-0.266621 -0.851443 -0.685863
-0.267152 -0.851269 -0.685028
-0.268781 -0.890511 -0.661644
-0.273861 -0.854538 -0.669371
-0.404578 -0.835989 -0.749582
-0.263995 -0.873658 -0.674973
-0.276357 -0.835209 -0.696865
-0.277136 -0.834218 -0.697604
-0.275483 -0.836092 -0.696092
-0.277732 -0.833152 -0.698215
-0.268867 -0.842119 -0.697755
-0.269727 -0.841241 -0.69849
-0.370101 -0.813642 -0.732835
-0.313193 -0.897957 -0.636746
-0.314105 -0.897768 -0.637231
-0.314103 -0.899122 -0.637443
-0.272504 -0.911386 -0.70173
-0.274791 -0.835712 -0.699382
-0.354507 -0.871131 -0.718079
-0.358468 -0.807725 -0.732025
-0.359302 -0.807664 -0.731369
-0.391963 -0.843058 -0.702188
-0.35472 -0.869655 -0.718132
-0.260733 -0.867006 -0.6838
-0.248961 -0.885595 -0.689407
-0.250035 -0.88731 -0.688606
-0.248665 -0.883921 -0.689513
-0.258608 -0.871114 -0.687699
-0.258525 -0.872526 -0.687391
-0.258827 -0.86982 -0.688096
-0.258538 -0.873998 -0.687136
-0.279175 -0.831183 -0.699581
-0.280107 -0.83033 -0.700392
-0.281101 -0.829479 -0.701246
-0.264075 -0.872248 -0.67529
-0.271247 -0.851628 -0.675484
-0.270701 -0.851788 -0.676312
-0.269815 -0.858456 -0.674469
-0.269967 -0.857104 -0.674821
-0.27023 -0.858194 -0.673567
-0.270067 -0.855736 -0.675147
-0.270595 -0.855538 -0.674309
-0.270447 -0.856892 -0.673958
-0.265828 -0.870412 -0.673151
-0.265433 -0.865921 -0.677412
-0.266066 -0.865816 -0.676637
-0.26558 -0.866941 -0.676089
-0.317904 -0.840554 -0.733668
-0.317974 -0.841731 -0.734402
-0.318913 -0.841858 -0.734005
-0.258525 -0.875441 -0.686845
-0.258475 -0.876886 -0.686549
-0.360951 -0.86795 -0.644493
-0.360281 -0.869314 -0.644508
-0.359988 -0.867599 -0.644408
-0.388147 -0.824265 -0.713045
-0.387994 -0.823384 -0.712072
-0.387259 -0.824548 -0.71156
-0.365447 -0.817315 -0.684815
-0.355358 -0.829838 -0.682649
-0.355924 -0.828661 -0.683232
-0.356674 -0.8276 -0.683923
-0.357354 -0.8265 -0.684629
-0.246864 -0.875911 -0.717304
-0.248365 -0.873586 -0.717984
-0.248688 -0.873233 -0.718069
-0.247556 -0.87474 -0.717672
-0.411116 -0.825674 -0.767085
-0.412556 -0.825028 -0.767465
-0.41184 -0.823942 -0.766472
-0.356561 -0.811869 -0.723757
-0.361602 -0.816201 -0.731747
-0.263658 -0.851444 -0.698572
-0.242874 -0.880993 -0.702054
-0.243021 -0.87961 -0.702415
-0.259628 -0.864334 -0.695863
-0.243183 -0.87823 -0.702779
-0.243402 -0.876931 -0.703176
-0.243569 -0.875581 -0.703532
-0.318076 -0.918618 -0.689233
-0.319065 -0.918809 -0.689028
-0.318996 -0.919457 -0.690829
-0.365205 -0.83521 -0.652859
-0.259324 -0.867264 -0.688937
-0.274475 -0.852055 -0.67026
-0.274113 -0.853269 -0.669773
-0.2715 -0.890824 -0.659753
-0.275401 -0.834732 -0.703695
-0.357847 -0.801139 -0.748832
-0.270474 -0.840272 -0.699197
-0.326583 -0.883477 -0.738602
-0.325672 -0.883818 -0.738712
-0.32663 -0.883992 -0.73844
-0.269727 -0.84521 -0.686687
-0.405946 -0.84109 -0.737738
-0.243865 -0.874332 -0.703977
-0.244263 -0.873151 -0.704474
-0.244752 -0.872027 -0.705019
-0.245404 -0.871015 -0.705661
-0.246169 -0.87009 -0.706352
-0.386865 -0.830673 -0.711061
-0.385918 -0.831141 -0.7096
-0.248517 -0.882305 -0.68971
-0.263898 -0.851205 -0.701225
-0.261086 -0.859886 -0.695237
-0.261419 -0.858651 -0.695686
-0.272797 -0.837424 -0.701359
-0.260411 -0.868241 -0.683347
-0.278394 -0.832121 -0.698867
-0.357302 -0.898867 -0.69133
-0.268331 -0.86851 -0.670321
-0.267954 -0.869708 -0.669835
-0.367932 -0.80505 -0.718155
-0.268844 -0.867406 -0.670884
-0.26586 -0.876257 -0.672083
-0.26569 -0.874649 -0.672264
-0.265613 -0.873151 -0.672499
-0.264964 -0.867055 -0.676877
-0.254377 -0.901279 -0.704279
-0.258323 -0.868516 -0.699078
-0.401905 -0.818822 -0.694692
-0.396796 -0.833358 -0.710118
-0.396912 -0.833838 -0.711069
-0.396374 -0.834094 -0.712226
-0.395858 -0.832953 -0.708828
-0.355893 -0.829155 -0.684383
-0.356571 -0.828048 -0.685016
-0.271987 -0.860329 -0.729131
-0.357296 -0.827261 -0.686111
-0.356575 -0.828343 -0.68563
-0.270713 -0.85417 -0.674627
-0.27133 -0.854047 -0.67387
-0.357699 -0.81358 -0.723002
-0.282969 -0.848638 -0.665717
-0.283205 -0.847344 -0.666122
-0.363405 -0.824663 -0.694116
-0.283332 -0.842698 -0.669538
-0.398461 -0.817526 -0.668087
-0.398148 -0.816957 -0.667892
-0.398778 -0.816386 -0.668802
-0.278558 -0.850703 -0.667199
-0.409791 -0.819866 -0.725493
-0.408747 -0.819515 -0.723582
-0.407843 -0.818556 -0.723606
-0.350767 -0.898392 -0.666996
-0.367348 -0.898687 -0.676946
-0.367415 -0.898714 -0.676291
-0.368544 -0.89793 -0.677447
-0.302713 -0.888835 -0.637432
-0.258446 -0.879883 -0.685981
-0.248496 -0.880808 -0.689973
-0.313845 -0.90135 -0.650317
-0.273512 -0.863927 -0.666151
-0.272057 -0.88821 -0.660635
-0.265687 -0.871742 -0.672811
-0.264978 -0.873287 -0.673266
-0.369757 -0.893012 -0.662857
-0.273976 -0.859897 -0.667215
-0.398981 -0.850029 -0.672419
-0.274619 -0.855997 -0.668373
-0.274565 -0.854489 -0.668631
-0.25906 -0.866121 -0.700075
-0.283597 -0.84011 -0.6739
-0.248647 -0.879431 -0.690339
-0.258726 -0.867361 -0.699625
-0.277661 -0.85826 -0.663926
