-0.287981 -0.89844 -0.654192
-0.316588 -0.90443 -0.644805
-0.322965 -0.901145 -0.6352
-0.328711 -0.894846 -0.635979
-0.307297 -0.906101 -0.666607
-0.312143 -0.907971 -0.666767
-0.302765 -0.879221 -0.64899
-0.297332 -0.87891 -0.649108
-0.302024 -0.908331 -0.676295
-0.282686 -0.877092 -0.652831
-0.333942 -0.894171 -0.633713
-0.308089 -0.898943 -0.639468
-0.309839 -0.901537 -0.643396
-0.30647 -0.858689 -0.651203
-0.311343 -0.860384 -0.652001
-0.304728 -0.864569 -0.650306
-0.309591 -0.865332 -0.651948
-0.282065 -0.906835 -0.678504
-0.295965 -0.873615 -0.64939
-0.317138 -0.88457 -0.655317
-0.276043 -0.906975 -0.684581
-0.318002 -0.893379 -0.641816
-0.319489 -0.897965 -0.640395
-0.272496 -0.901998 -0.67431
-0.290736 -0.88852 -0.647649
-0.289092 -0.886021 -0.652471
-0.330997 -0.901342 -0.629495
-0.267415 -0.892513 -0.662257
-0.314649 -0.889803 -0.643064
-0.273338 -0.891047 -0.658527
-0.272458 -0.886038 -0.66252
-0.305 -0.899583 -0.6434
-0.295488 -0.903355 -0.669933
-0.276071 -0.89674 -0.658353
-0.305548 -0.903579 -0.662301
-0.312709 -0.880804 -0.654777
-0.288261 -0.905292 -0.673699
-0.304797 -0.911108 -0.681398
-0.271167 -0.895431 -0.660065
-0.320849 -0.881356 -0.65289
-0.31409 -0.864452 -0.654634
-0.28361 -0.89086 -0.652106
-0.307235 -0.880355 -0.650982
-0.303036 -0.89859 -0.653812
-0.307956 -0.899753 -0.65241
-0.283654 -0.909227 -0.683377
-0.317872 -0.885735 -0.689448
-0.317545 -0.878951 -0.657017
-0.309029 -0.885374 -0.649894
-0.306213 -0.875202 -0.651087
-0.327512 -0.892899 -0.641607
-0.279887 -0.898784 -0.66099
-0.304634 -0.853722 -0.652348
-0.29986 -0.855457 -0.652759
-0.2656 -0.893851 -0.666794
-0.266269 -0.898271 -0.67604
-0.322416 -0.887908 -0.648457
-0.293055 -0.897691 -0.659753
-0.298194 -0.896723 -0.653655
-0.276636 -0.886654 -0.659283
-0.313064 -0.891631 -0.63828
-0.290549 -0.875298 -0.650137
-0.297101 -0.907225 -0.677603
-0.287171 -0.892138 -0.648137
-0.31521 -0.88767 -0.64787
-0.305429 -0.869933 -0.650758
-0.269963 -0.897327 -0.66507
-0.318722 -0.89114 -0.646271
-0.310462 -0.904785 -0.66079
-0.314623 -0.907335 -0.662454
-0.310772 -0.873015 -0.694198
-0.271488 -0.904963 -0.685493
-0.315464 -0.86939 -0.656216
-0.284298 -0.882827 -0.653197
-0.320351 -0.906985 -0.648034
-0.295529 -0.868527 -0.64944
-0.294036 -0.898375 -0.64949
-0.310396 -0.895558 -0.635338
-0.332914 -0.887736 -0.647134
-0.324736 -0.877244 -0.650459
-0.321962 -0.881195 -0.686777
-0.324593 -0.882467 -0.649224
-0.321396 -0.875885 -0.654831
-0.319621 -0.872197 -0.657779
-0.320752 -0.903123 -0.639473
-0.295206 -0.896868 -0.643952
-0.298382 -0.895385 -0.638914
-0.300264 -0.905894 -0.671769
-0.305124 -0.907617 -0.672234
-0.266677 -0.904004 -0.684407
-0.299849 -0.909852 -0.682154
-0.294728 -0.910933 -0.682103
-0.309889 -0.87095 -0.653227
-0.29086 -0.899391 -0.664957
-0.304237 -0.886548 -0.639737
-0.304088 -0.884445 -0.648467
-0.306407 -0.884666 -0.643972
-0.291867 -0.909468 -0.678069
-0.290646 -0.901484 -0.66977
-0.279607 -0.881933 -0.654754
-0.273732 -0.880941 -0.661081
-0.28412 -0.868019 -0.653383
-0.288839 -0.870963 -0.652424
-0.283268 -0.905019 -0.673268
-0.278404 -0.903343 -0.672695
-0.290605 -0.893375 -0.644275
-0.279269 -0.895041 -0.653369
-0.315199 -0.897045 -0.637983
-0.282721 -0.887067 -0.655782
-0.300387 -0.8852 -0.642917
-0.328273 -0.903196 -0.633555
-0.316227 -0.907716 -0.657643
-0.322895 -0.905713 -0.643478
-0.312873 -0.886444 -0.653047
-0.289649 -0.911498 -0.68223
-0.286888 -0.908999 -0.678046
-0.298791 -0.88444 -0.649006
-0.270741 -0.899515 -0.669889
-0.327833 -0.888554 -0.645876
-0.278337 -0.890378 -0.655958
-0.298954 -0.899091 -0.658046
-0.317945 -0.907978 -0.652697
-0.309417 -0.888375 -0.639498
-0.29271 -0.86132 -0.653284
-0.297242 -0.863838 -0.651823
-0.289156 -0.896899 -0.648538
-0.309695 -0.90241 -0.656393
-0.293295 -0.905123 -0.675053
-0.27719 -0.905353 -0.677519
-0.305551 -0.89408 -0.634438
-0.310988 -0.886435 -0.644956
-0.295045 -0.892313 -0.641371
-0.301774 -0.891207 -0.636309
-0.314597 -0.903817 -0.654478
-0.291191 -0.866319 -0.651412
-0.284158 -0.896501 -0.651357
-0.323606 -0.891433 -0.644769
-0.325657 -0.904421 -0.638382
-0.301336 -0.873797 -0.649103
-0.331621 -0.891563 -0.644152
-0.304781 -0.90125 -0.657797
-0.274877 -0.898534 -0.66356
-0.330125 -0.883538 -0.647464
-0.310008 -0.909097 -0.671514
-0.307629 -0.910071 -0.676074
-0.301291 -0.860572 -0.652262
-0.300697 -0.901707 -0.66214
-0.323792 -0.895634 -0.638605
-0.293823 -0.885024 -0.650424
-0.312857 -0.90111 -0.650599
-0.267457 -0.901934 -0.679593
-0.272275 -0.904103 -0.679139
-0.303228 -0.897214 -0.639098
-0.295839 -0.886491 -0.645483
-0.281011 -0.872814 -0.655248
-0.31484 -0.901883 -0.640781
-0.332759 -0.893097 -0.638607
-0.310507 -0.876377 -0.653878
-0.315148 -0.874415 -0.65673
-0.282974 -0.898187 -0.656754
-0.275401 -0.877181 -0.657895
-0.318375 -0.888152 -0.651781
-0.302443 -0.904328 -0.666243
-0.300068 -0.89853 -0.64452
-0.295704 -0.901261 -0.665116
-0.300498 -0.867555 -0.650381
-0.290901 -0.880301 -0.649943
