-0.359897 -0.915792 -0.663722
-0.356498 -0.911431 -0.662592
-0.352253 -0.9101 -0.66856
-0.352457 -0.912313 -0.673327
-0.355978 -0.914145 -0.668483
-0.360632 -0.920878 -0.664326
-0.359195 -0.919663 -0.669106
-0.323795 -0.912459 -0.66286
-0.31863 -0.913858 -0.665053
-0.347461 -0.927311 -0.673653
-0.346276 -0.928928 -0.679453
-0.342468 -0.926848 -0.676769
-0.331658 -0.923656 -0.690884
-0.317725 -0.917485 -0.686888
-0.333939 -0.93129 -0.694284
-0.344844 -0.905673 -0.661459
-0.347044 -0.898475 -0.666065
-0.348701 -0.904261 -0.665829
-0.336382 -0.927144 -0.684404
-0.341267 -0.928668 -0.682158
-0.339089 -0.930226 -0.687962
-0.343979 -0.931628 -0.689166
-0.344816 -0.927225 -0.692147
-0.344217 -0.931535 -0.69493
-0.35683 -0.924409 -0.659954
-0.361657 -0.922939 -0.659483
-0.360674 -0.926145 -0.663237
-0.355278 -0.887828 -0.652914
-0.33599 -0.921316 -0.66837
-0.341129 -0.920375 -0.662141
-0.340916 -0.922418 -0.667055
-0.350293 -0.919449 -0.653727
-0.355157 -0.92111 -0.654292
-0.347114 -0.920986 -0.659008
-0.34121 -0.909907 -0.638716
-0.342493 -0.907264 -0.632655
-0.34655 -0.908416 -0.635666
-0.348073 -0.908324 -0.658464
-0.318355 -0.915998 -0.682137
-0.323355 -0.91638 -0.679243
-0.322156 -0.918187 -0.684616
-0.345922 -0.922759 -0.664275
-0.350772 -0.924525 -0.664633
-0.319549 -0.914224 -0.676789
-0.313433 -0.914847 -0.683552
-0.314621 -0.91317 -0.677999
-0.340951 -0.896057 -0.643291
-0.340646 -0.898253 -0.64822
-0.344707 -0.899558 -0.642343
-0.37148 -0.89627 -0.68053
-0.371311 -0.89597 -0.675038
-0.360165 -0.921251 -0.654987
-0.34963 -0.894158 -0.659859
-0.344188 -0.8924 -0.658563
-0.352802 -0.906913 -0.674908
-0.331928 -0.921595 -0.673147
-0.345739 -0.90307 -0.635277
-0.344315 -0.898555 -0.63702
-0.360184 -0.916848 -0.658154
-0.350226 -0.924833 -0.677769
-0.34903 -0.919201 -0.679316
-0.345918 -0.923514 -0.680981
-0.368127 -0.889532 -0.657829
-0.362962 -0.891326 -0.656211
-0.341699 -0.92457 -0.671997
-0.346688 -0.925045 -0.66889
-0.347462 -0.914806 -0.681854
-0.348532 -0.906474 -0.688954
-0.348397 -0.909754 -0.684744
-0.355631 -0.926245 -0.665094
-0.359826 -0.925071 -0.668345
-0.354105 -0.904584 -0.679297
-0.355058 -0.90124 -0.674758
-0.360283 -0.901033 -0.676798
-0.338867 -0.932374 -0.692959
-0.352517 -0.903134 -0.68941
-0.352982 -0.900035 -0.693714
-0.366602 -0.898713 -0.687403
-0.363413 -0.899564 -0.683053
-0.351546 -0.92677 -0.669365
-0.34275 -0.914826 -0.686095
-0.341686 -0.917485 -0.690598
-0.343831 -0.920277 -0.684216
-0.334305 -0.927627 -0.689344
-0.344676 -0.903018 -0.646482
-0.342708 -0.904727 -0.651114
-0.346937 -0.907265 -0.644507
-0.355495 -0.902128 -0.683713
-0.359463 -0.899516 -0.686545
-0.356605 -0.913305 -0.657033
-0.331141 -0.919548 -0.668009
-0.3521 -0.906099 -0.684601
-0.352825 -0.910039 -0.659105
-0.350851 -0.908569 -0.663601
-0.352796 -0.920777 -0.675917
-0.354874 -0.917036 -0.672884
-0.362374 -0.897311 -0.665023
-0.357357 -0.89724 -0.664186
-0.360599 -0.895116 -0.660089
-0.334929 -0.912215 -0.647515
-0.339582 -0.91594 -0.652779
-0.340356 -0.918121 -0.657497
-0.352896 -0.891663 -0.656588
-0.357972 -0.891171 -0.655616
-0.370016 -0.893384 -0.663604
-0.365716 -0.893661 -0.660936
-0.373183 -0.889089 -0.660229
-0.369778 -0.896652 -0.691243
-0.364607 -0.898035 -0.692201
-0.355595 -0.89482 -0.659684
-0.367101 -0.898511 -0.672814
-0.372165 -0.894943 -0.669176
-0.34459 -0.916204 -0.650243
-0.345357 -0.918515 -0.654667
-0.346865 -0.904425 -0.640011
-0.346096 -0.911319 -0.639754
-0.351413 -0.909094 -0.680325
-0.3545 -0.916494 -0.651894
-0.3523 -0.912177 -0.654212
-0.350619 -0.914057 -0.677965
-0.344453 -0.909741 -0.688216
-0.340024 -0.900437 -0.653281
-0.340324 -0.894543 -0.653963
-0.34044 -0.89802 -0.658056
-0.356291 -0.923777 -0.672404
-0.333835 -0.922144 -0.684974
-0.337137 -0.910317 -0.642932
-0.342209 -0.926369 -0.698445
-0.337442 -0.907303 -0.691537
-0.34315 -0.905758 -0.691429
-0.349836 -0.915621 -0.649742
-0.361378 -0.88694 -0.652912
-0.333865 -0.911095 -0.692099
-0.334216 -0.909897 -0.697061
-0.342845 -0.92211 -0.695658
-0.377759 -0.893566 -0.675054
-0.37496 -0.894451 -0.68983
-0.376291 -0.89213 -0.670322
-0.344504 -0.927521 -0.68608
-0.356415 -0.928398 -0.670046
-0.346902 -0.913198 -0.644916
-0.341986 -0.912113 -0.643207
-0.342826 -0.90122 -0.663496
-0.339353 -0.918537 -0.696623
-0.367472 -0.896632 -0.667473
-0.35236 -0.897019 -0.663656
-0.344794 -0.910227 -0.648526
-0.347665 -0.910341 -0.653365
-0.33008 -0.910365 -0.64733
-0.33678 -0.923422 -0.673416
-0.33755 -0.925654 -0.678291
-0.339797 -0.913826 -0.648176
-0.339096 -0.911636 -0.689176
-0.319818 -0.912106 -0.659738
-0.318759 -0.912174 -0.671649
-0.366733 -0.898873 -0.678062
-0.35233 -0.928894 -0.67444
-0.371719 -0.896544 -0.685925
-0.336379 -0.917433 -0.664242
-0.328479 -0.91585 -0.66595
-0.339838 -0.903072 -0.659123
-0.375082 -0.890937 -0.665304
-0.343672 -0.922445 -0.689171
-0.353673 -0.883666 -0.649942
-0.341337 -0.88931 -0.654291
-0.347521 -0.888793 -0.655414
-0.358694 -0.883669 -0.650121
-0.348966 -0.884948 -0.651577
-0.342563 -0.906865 -0.655974
-0.351814 -0.904651 -0.670461
-0.352168 -0.899254 -0.668319
-0.357161 -0.899132 -0.669405
-0.337539 -0.915098 -0.693094
-0.36221 -0.899045 -0.670729
-0.343348 -0.896008 -0.662636
-0.339754 -0.904475 -0.629138
-0.339814 -0.921992 -0.700556
-0.335308 -0.914997 -0.697751
-0.336685 -0.933937 -0.698656
-0.341631 -0.934824 -0.69798
-0.340123 -0.930296 -0.70077
-0.325358 -0.909341 -0.649069
-0.340821 -0.894802 -0.63772
-0.357628 -0.874509 -0.679672
-0.348548 -0.90308 -0.692781
-0.344207 -0.901828 -0.695011
-0.336315 -0.904982 -0.697014
-0.33229 -0.908468 -0.642746
-0.327338 -0.883887 -0.685835
-0.337994 -0.8935 -0.649407
-0.337551 -0.906358 -0.633489
-0.336365 -0.908062 -0.638533
-0.323187 -0.909993 -0.653594
-0.342312 -0.900366 -0.632262
-0.3223 -0.890465 -0.68964
-0.359055 -0.898174 -0.69248
-0.351972 -0.922698 -0.659481
