-0.258964 -0.876133 -0.684572
-0.258527 -0.870141 -0.689054
-0.2596 -0.871116 -0.683472
-0.270869 -0.861906 -0.67085
-0.271965 -0.866859 -0.666987
-0.268844 -0.867406 -0.670884
-0.262367 -0.859017 -0.688893
-0.262211 -0.856662 -0.694128
-0.264419 -0.854067 -0.690019
-0.24342 -0.881781 -0.699824
-0.244297 -0.875948 -0.700295
-0.246192 -0.883406 -0.694048
-0.246267 -0.877093 -0.716897
-0.259902 -0.863411 -0.703652
-0.261428 -0.857507 -0.703448
-0.260955 -0.859938 -0.698816
-0.298442 -0.842574 -0.660521
-0.295615 -0.839122 -0.665451
-0.300483 -0.837913 -0.666092
-0.297467 -0.832708 -0.684691
-0.301147 -0.833816 -0.680904
-0.296158 -0.835129 -0.68022
-0.261628 -0.887321 -0.678184
-0.263724 -0.884518 -0.674003
-0.247126 -0.87851 -0.693148
-0.280792 -0.847835 -0.669272
-0.283515 -0.850359 -0.664013
-0.278897 -0.855665 -0.664018
-0.263225 -0.878658 -0.675976
-0.263995 -0.873658 -0.674973
-0.265978 -0.877836 -0.671871
-0.243534 -0.875063 -0.705961
-0.246169 -0.87009 -0.706352
-0.256876 -0.869843 -0.700288
-0.259289 -0.865193 -0.697943
-0.257196 -0.872502 -0.695102
-0.304202 -0.840108 -0.661286
-0.297121 -0.836623 -0.670886
-0.302349 -0.836977 -0.670747
-0.30792 -0.838099 -0.670284
-0.286117 -0.834 -0.681944
-0.281766 -0.833546 -0.688641
-0.287493 -0.831965 -0.68685
-0.280327 -0.84185 -0.678804
-0.279203 -0.845069 -0.674843
-0.272489 -0.845343 -0.681214
-0.308421 -0.832965 -0.677258
-0.312832 -0.830263 -0.679281
-0.309743 -0.837206 -0.674904
-0.297343 -0.822936 -0.697724
-0.301865 -0.821053 -0.698915
-0.302473 -0.823673 -0.693093
-0.288806 -0.837295 -0.676698
-0.291121 -0.833662 -0.680833
-0.259063 -0.867756 -0.693565
-0.25727 -0.875315 -0.690939
-0.305525 -0.826286 -0.685966
-0.301278 -0.826114 -0.688733
-0.306716 -0.823819 -0.690299
-0.260519 -0.864633 -0.689023
-0.274969 -0.86477 -0.663313
-0.282108 -0.842929 -0.671103
-0.285003 -0.839455 -0.673809
-0.289763 -0.838535 -0.671864
-0.29649 -0.829451 -0.688913
-0.292663 -0.828098 -0.692247
-0.297114 -0.825696 -0.693365
-0.252731 -0.87091 -0.697052
-0.291859 -0.843191 -0.66326
-0.260673 -0.861955 -0.693295
-0.29282 -0.825286 -0.696666
-0.287695 -0.850396 -0.661061
-0.28413 -0.838298 -0.678816
-0.280912 -0.835738 -0.683926
-0.293073 -0.846714 -0.659625
-0.255237 -0.878697 -0.68778
-0.258845 -0.881128 -0.684793
-0.252044 -0.867927 -0.703867
-0.293225 -0.851829 -0.65588
-0.248517 -0.882305 -0.68971
-0.252656 -0.873699 -0.692836
-0.311896 -0.822407 -0.692445
-0.306422 -0.821583 -0.696316
-0.259937 -0.891057 -0.682254
-0.254446 -0.890682 -0.684868
-0.258862 -0.886126 -0.683327
-0.254412 -0.883631 -0.684943
-0.247746 -0.869968 -0.701334
-0.261684 -0.870567 -0.714936
-0.264292 -0.865902 -0.718319
-0.262365 -0.86492 -0.713598
-0.292733 -0.831922 -0.686272
-0.312093 -0.824485 -0.687746
-0.277414 -0.838723 -0.720132
-0.274724 -0.838505 -0.715833
-0.272363 -0.842819 -0.716826
-0.267834 -0.843413 -0.698018
-0.27063 -0.839959 -0.701823
-0.271392 -0.839327 -0.696329
-0.251051 -0.88695 -0.686908
-0.26458 -0.850476 -0.695701
-0.293886 -0.836946 -0.675619
-0.265694 -0.860147 -0.718485
-0.304702 -0.836993 -0.676732
-0.305087 -0.830488 -0.681347
-0.247042 -0.873669 -0.696449
-0.2691 -0.850083 -0.684152
-0.266534 -0.849555 -0.688627
-0.270573 -0.84525 -0.686046
-0.287241 -0.829836 -0.693026
-0.317478 -0.824198 -0.688648
-0.319321 -0.823043 -0.693159
-0.315117 -0.826881 -0.683636
-0.265745 -0.853758 -0.684823
-0.276666 -0.837574 -0.688028
-0.309476 -0.827873 -0.682981
-0.244696 -0.886623 -0.698591
-0.276073 -0.849691 -0.67057
-0.275477 -0.856029 -0.667747
-0.242954 -0.885182 -0.704212
-0.286503 -0.845005 -0.664162
-0.289525 -0.841073 -0.667243
-0.303982 -0.871634 -0.696122
-0.271561 -0.876332 -0.663753
-0.273722 -0.871728 -0.662377
-0.287036 -0.85544 -0.65863
-0.27838 -0.860584 -0.66155
-0.266483 -0.846751 -0.692807
-0.301216 -0.829025 -0.684536
-0.299886 -0.836933 -0.675326
-0.248623 -0.88851 -0.69131
-0.24753 -0.89405 -0.705538
-0.253944 -0.899168 -0.696195
-0.260163 -0.874814 -0.71878
-0.255421 -0.875032 -0.721368
-0.250703 -0.877499 -0.721515
-0.247418 -0.881564 -0.719083
-0.264382 -0.871633 -0.719702
-0.246057 -0.885869 -0.715246
-0.292689 -0.823034 -0.701868
-0.267173 -0.854375 -0.718624
-0.263873 -0.859182 -0.713709
-0.265741 -0.862838 -0.680663
-0.268975 -0.85944 -0.677376
-0.268612 -0.864489 -0.674961
-0.287205 -0.827403 -0.698482
-0.306153 -0.83835 -0.665543
-0.247202 -0.872206 -0.715552
-0.244131 -0.879427 -0.712849
-0.272903 -0.839144 -0.691279
-0.273576 -0.841327 -0.685181
-0.277429 -0.835252 -0.692688
-0.24736 -0.890879 -0.695579
-0.262618 -0.854177 -0.698581
-0.269235 -0.842649 -0.691773
-0.269193 -0.880731 -0.667042
-0.245613 -0.889399 -0.7117
-0.243924 -0.884658 -0.710112
-0.297565 -0.82177 -0.702973
-0.269747 -0.871699 -0.665776
-0.282265 -0.829243 -0.699641
-0.274672 -0.83531 -0.705526
-0.274391 -0.835961 -0.700292
-0.260616 -0.876057 -0.679569
-0.262172 -0.870197 -0.67928
-0.266713 -0.872843 -0.670856
-0.272406 -0.847321 -0.722244
-0.270166 -0.852437 -0.722999
-0.274787 -0.842974 -0.721279
-0.268546 -0.857233 -0.723381
-0.267675 -0.862719 -0.723142
-0.310463 -0.863913 -0.693912
-0.274519 -0.846943 -0.676156
-0.272577 -0.851453 -0.673972
-0.248478 -0.868733 -0.710945
-0.261787 -0.865732 -0.683536
-0.270763 -0.849983 -0.67915
-0.283059 -0.827541 -0.706265
-0.287515 -0.825328 -0.708692
-0.28807 -0.825094 -0.703215
-0.273756 -0.861199 -0.666826
-0.270949 -0.85669 -0.673108
-0.281577 -0.832557 -0.693626
-0.26797 -0.843729 -0.705439
-0.271075 -0.839411 -0.707149
-0.268173 -0.854189 -0.680268
-0.265134 -0.868089 -0.675569
-0.263381 -0.853764 -0.708427
-0.264181 -0.851001 -0.703908
-0.278288 -0.832992 -0.697402
-0.264583 -0.859321 -0.684211
-0.274057 -0.836397 -0.711196
-0.278465 -0.831511 -0.708887
-0.260743 -0.881202 -0.679938
-0.265904 -0.847146 -0.700947
-0.278943 -0.831104 -0.703132
-0.267518 -0.847769 -0.713648
-0.265653 -0.848131 -0.70818
-0.242787 -0.879873 -0.707121
-0.292276 -0.822772 -0.706896
-0.266489 -0.867884 -0.722494
-0.260385 -0.864439 -0.708732
-0.261651 -0.859458 -0.708422
-0.258298 -0.868865 -0.705109
-0.244496 -0.874429 -0.711784
-0.282762 -0.828546 -0.711622
-0.251457 -0.871954 -0.718651
-0.269757 -0.843064 -0.711716
-0.246369 -0.891728 -0.700546
-0.278338 -0.83334 -0.71392
-0.244807 -0.889781 -0.705809
-0.26544 -0.85343 -0.713799
-0.269403 -0.848729 -0.718395
-0.253341 -0.868732 -0.714002
-0.254656 -0.867687 -0.708476
-0.256658 -0.871479 -0.717438
-0.258806 -0.869337 -0.710862
-0.291043 -0.824419 -0.712689
-0.257981 -0.895637 -0.684581
-0.25223 -0.8928 -0.689286
-0.250992 -0.894836 -0.694174
-0.25481 -0.897079 -0.69024
-0.301604 -0.845393 -0.657509
-0.297267 -0.848759 -0.657416
-0.250735 -0.897191 -0.700239
-0.257655 -0.900964 -0.692047
-0.263262 -0.892226 -0.675939
-0.263497 -0.889168 -0.67196
-0.261644 -0.90238 -0.688144
-0.261718 -0.899347 -0.684008
-0.262476 -0.895922 -0.680145
-0.266854 -0.883999 -0.670111
-0.297072 -0.822036 -0.708802
-0.283686 -0.830654 -0.71699
-0.280651 -0.834335 -0.718591
-0.314856 -0.821452 -0.696482
-0.305847 -0.820107 -0.702941
-0.301598 -0.820231 -0.705886
-0.287053 -0.827332 -0.715083
-0.310347 -0.820745 -0.699719
-0.277077 -0.868784 -0.659927
-0.279545 -0.86495 -0.657594
-0.284703 -0.860445 -0.657558
