-0.403224 -0.816419 -0.688209
-0.405643 -0.820708 -0.682194
-0.404772 -0.815649 -0.681678
-0.39041 -0.866315 -0.687247
-0.388487 -0.863279 -0.692021
-0.388123 -0.868668 -0.691583
-0.388023 -0.881742 -0.678627
-0.389988 -0.876916 -0.676885
-0.389952 -0.876168 -0.682105
-0.385179 -0.885327 -0.68143
-0.381933 -0.888949 -0.684431
-0.380937 -0.879498 -0.657345
-0.383465 -0.8806 -0.661767
-0.40205 -0.828699 -0.678034
-0.395131 -0.84294 -0.69932
-0.397541 -0.838442 -0.698418
-0.392675 -0.840264 -0.702882
-0.39742 -0.810159 -0.68188
-0.400739 -0.813057 -0.685139
-0.404334 -0.823111 -0.677791
-0.387675 -0.879798 -0.684691
-0.401239 -0.844928 -0.673121
-0.402168 -0.839224 -0.673469
-0.402435 -0.842589 -0.677532
-0.392071 -0.863396 -0.672607
-0.392302 -0.857672 -0.676849
-0.392183 -0.86264 -0.677791
-0.400749 -0.830548 -0.694334
-0.402219 -0.829919 -0.688108
-0.3983 -0.848278 -0.668831
-0.400484 -0.842764 -0.668591
-0.401222 -0.837035 -0.669019
-0.403179 -0.837225 -0.678961
-0.40206 -0.830759 -0.682892
-0.403503 -0.836397 -0.684091
-0.389243 -0.857273 -0.663845
-0.394069 -0.848542 -0.665275
-0.390131 -0.854897 -0.66838
-0.388982 -0.85065 -0.6654
-0.399439 -0.814199 -0.690675
-0.395875 -0.813334 -0.694073
-0.38363 -0.884022 -0.665867
-0.402202 -0.833781 -0.675215
-0.391186 -0.87208 -0.679033
-0.390786 -0.866069 -0.66565
-0.390721 -0.872392 -0.673151
-0.391588 -0.868263 -0.670152
-0.391786 -0.867961 -0.676236
-0.389203 -0.808703 -0.690048
-0.391408 -0.81109 -0.693876
-0.385949 -0.860039 -0.69629
-0.398585 -0.852544 -0.678454
-0.399091 -0.850458 -0.673346
-0.400686 -0.847367 -0.679212
-0.387498 -0.882399 -0.673656
-0.402221 -0.841697 -0.682887
-0.39121 -0.860776 -0.66717
-0.386975 -0.876381 -0.663914
-0.399327 -0.833469 -0.665668
-0.391566 -0.861817 -0.683265
-0.390089 -0.860489 -0.6881
-0.391876 -0.867211 -0.681419
-0.390749 -0.871294 -0.684444
-0.400863 -0.846572 -0.684373
-0.389701 -0.874249 -0.667614
-0.394473 -0.851975 -0.669491
-0.403021 -0.825425 -0.684283
-0.38499 -0.886041 -0.676294
-0.391522 -0.858375 -0.671952
-0.389262 -0.870854 -0.663638
-0.386161 -0.873491 -0.69345
-0.383844 -0.870879 -0.697037
-0.404891 -0.821403 -0.687968
-0.389544 -0.877606 -0.671849
-0.388095 -0.874032 -0.688763
-0.386613 -0.878932 -0.690332
-0.393689 -0.848446 -0.697808
-0.391315 -0.84587 -0.701575
-0.402533 -0.834993 -0.688828
-0.401729 -0.840778 -0.688343
-0.39494 -0.854138 -0.674134
-0.402489 -0.824864 -0.690726
-0.38501 -0.88457 -0.686695
-0.394781 -0.854765 -0.687663
-0.395105 -0.85173 -0.692363
-0.390714 -0.856503 -0.691366
-0.386012 -0.872977 -0.660135
-0.398788 -0.851787 -0.683621
-0.397817 -0.846769 -0.694263
-0.401 -0.845739 -0.689562
-0.400141 -0.842057 -0.692943
-0.40053 -0.836422 -0.693497
-0.399417 -0.839329 -0.664856
-0.397531 -0.844884 -0.664973
-0.383938 -0.884979 -0.671228
-0.387246 -0.879805 -0.667961
-0.382345 -0.889363 -0.679171
-0.383397 -0.882636 -0.692613
-0.385624 -0.849244 -0.702215
-0.368591 -0.821938 -0.701835
-0.382361 -0.887538 -0.690094
-0.382525 -0.858128 -0.700399
-0.387341 -0.844103 -0.704436
-0.383941 -0.878035 -0.694637
-0.381822 -0.852765 -0.701695
-0.398823 -0.850949 -0.688817
-0.38584 -0.866119 -0.695444
-0.383138 -0.863393 -0.699065
-0.391034 -0.853437 -0.69594
-0.385955 -0.809494 -0.694094
-0.394791 -0.810606 -0.689229
-0.402171 -0.813254 -0.678005
-0.404452 -0.818101 -0.676869
-0.401043 -0.821472 -0.672752
-0.400795 -0.831548 -0.670963
-0.400874 -0.826493 -0.673678
-0.394437 -0.855855 -0.681828
-0.388051 -0.867401 -0.659981
-0.389494 -0.862612 -0.662033
-0.362122 -0.87029 -0.679966
-0.378389 -0.883114 -0.659958
-0.382047 -0.889111 -0.673323
-0.379272 -0.88654 -0.663764
-0.386929 -0.853322 -0.699046
-0.400032 -0.81694 -0.694868
-0.399431 -0.833734 -0.699095
-0.400349 -0.828206 -0.699347
-0.403504 -0.819995 -0.692908
-0.385509 -0.839868 -0.706375
-0.40184 -0.82391 -0.69629
-0.39584 -0.835141 -0.702846
-0.381143 -0.888283 -0.66812
