-0.288787 -0.919042 -0.716189
-0.285358 -0.919102 -0.71146
-0.288562 -0.921841 -0.708745
-0.317582 -0.918941 -0.716871
-0.320648 -0.916276 -0.720381
-0.315686 -0.915187 -0.721321
-0.280007 -0.891136 -0.729814
-0.285029 -0.889405 -0.732479
-0.283584 -0.884302 -0.73335
-0.303888 -0.912885 -0.686776
-0.299453 -0.913582 -0.69291
-0.282779 -0.916596 -0.707802
-0.280469 -0.9113 -0.709226
-0.282059 -0.916514 -0.702433
-0.305914 -0.913167 -0.723579
-0.309008 -0.908908 -0.726684
-0.303706 -0.909129 -0.727269
-0.293121 -0.916451 -0.701603
-0.294325 -0.914568 -0.69619
-0.29924 -0.915545 -0.698322
-0.322051 -0.919512 -0.714691
-0.315858 -0.924006 -0.70979
-0.29168 -0.920924 -0.704702
-0.29653 -0.922722 -0.705086
-0.293409 -0.923691 -0.708996
-0.300954 -0.914676 -0.722899
-0.30338 -0.918263 -0.717166
-0.285955 -0.91038 -0.722689
-0.288675 -0.904073 -0.729107
-0.284701 -0.904823 -0.725586
-0.258841 -0.901913 -0.714308
-0.263807 -0.901133 -0.717669
-0.259202 -0.89871 -0.718928
-0.320804 -0.925042 -0.708769
-0.326276 -0.92068 -0.709745
-0.284387 -0.900346 -0.728004
-0.285061 -0.894828 -0.729757
-0.28062 -0.900673 -0.724484
-0.298482 -0.90524 -0.729246
-0.303542 -0.898922 -0.733685
-0.298477 -0.900163 -0.732526
-0.326691 -0.905069 -0.727814
-0.328796 -0.898113 -0.732783
-0.324257 -0.900827 -0.730955
-0.333589 -0.906552 -0.726361
-0.279299 -0.914059 -0.697414
-0.273479 -0.91172 -0.701203
-0.303561 -0.903897 -0.730198
-0.308595 -0.897511 -0.734452
-0.276967 -0.901025 -0.720892
-0.275476 -0.896589 -0.723776
-0.273153 -0.898499 -0.718789
-0.298014 -0.917725 -0.703121
-0.303177 -0.926713 -0.707653
-0.307493 -0.923793 -0.701774
-0.310154 -0.927449 -0.704215
-0.298254 -0.925587 -0.709135
-0.296901 -0.923224 -0.714141
-0.315153 -0.927813 -0.701182
-0.315971 -0.92906 -0.706317
-0.311138 -0.925746 -0.709662
-0.279673 -0.909262 -0.714136
-0.276394 -0.906487 -0.711517
-0.313086 -0.894776 -0.736224
-0.309582 -0.891029 -0.737169
-0.330375 -0.922562 -0.707178
-0.329995 -0.928131 -0.70557
-0.325728 -0.926088 -0.707761
-0.268612 -0.910061 -0.700511
-0.272545 -0.911176 -0.695734
-0.285461 -0.914781 -0.717395
-0.283124 -0.913726 -0.712833
-0.274525 -0.886721 -0.728352
-0.278907 -0.880063 -0.731443
-0.273102 -0.881266 -0.728202
-0.308641 -0.902631 -0.731287
-0.332575 -0.891008 -0.735807
-0.327837 -0.888716 -0.737579
-0.327252 -0.893952 -0.735433
-0.327551 -0.917754 -0.714009
-0.284144 -0.915953 -0.697589
-0.289007 -0.917606 -0.69828
-0.290152 -0.898733 -0.730611
-0.295238 -0.89671 -0.734139
-0.292996 -0.891795 -0.735103
-0.293758 -0.902706 -0.730249
-0.331636 -0.916214 -0.71045
-0.282056 -0.910236 -0.718611
-0.301463 -0.923756 -0.703867
-0.300273 -0.895368 -0.735078
-0.289204 -0.915735 -0.692663
-0.284364 -0.913791 -0.692588
-0.263848 -0.90784 -0.700791
-0.263225 -0.906771 -0.694508
-0.303168 -0.88918 -0.737092
-0.30817 -0.916983 -0.693876
-0.307959 -0.918954 -0.699291
-0.304162 -0.916685 -0.6969
-0.261091 -0.904584 -0.710417
-0.314499 -0.889571 -0.737843
-0.289883 -0.909538 -0.726242
-0.294378 -0.908438 -0.728482
-0.298638 -0.91052 -0.726366
-0.311143 -0.912875 -0.72283
-0.314009 -0.910026 -0.725798
-0.275672 -0.891347 -0.726595
-0.271682 -0.892913 -0.722458
-0.330373 -0.902326 -0.730243
-0.288561 -0.892923 -0.732967
-0.312034 -0.918072 -0.719032
-0.304372 -0.914726 -0.691488
-0.290766 -0.886849 -0.736023
-0.293679 -0.918856 -0.717926
-0.298652 -0.917341 -0.718643
-0.294742 -0.913071 -0.72337
-0.257403 -0.889594 -0.723683
-0.317771 -0.907304 -0.728352
-0.31931 -0.902248 -0.730244
-0.313315 -0.905102 -0.730119
-0.322859 -0.896837 -0.733995
-0.322668 -0.891597 -0.736872
-0.33161 -0.913655 -0.716872
-0.312054 -0.920826 -0.712662
-0.267769 -0.908675 -0.693644
-0.252868 -0.886675 -0.722432
-0.311494 -0.877241 -0.699378
-0.255961 -0.902134 -0.709154
-0.253158 -0.892371 -0.720355
-0.257494 -0.883703 -0.723538
-0.269516 -0.881648 -0.724624
-0.250917 -0.894695 -0.716356
-0.262304 -0.885673 -0.721903
-0.267189 -0.886082 -0.720343
-0.322521 -0.908185 -0.726897
-0.324588 -0.912048 -0.722871
-0.272795 -0.908732 -0.691348
-0.308066 -0.919105 -0.715548
-0.307296 -0.91723 -0.720555
-0.257684 -0.894489 -0.721575
-0.254791 -0.897965 -0.716598
-0.302954 -0.918621 -0.702213
-0.262247 -0.891484 -0.722455
-0.270546 -0.905928 -0.712014
-0.274399 -0.902583 -0.71503
-0.279183 -0.886209 -0.730449
-0.289689 -0.915363 -0.720264
-0.265682 -0.904957 -0.713163
-0.265063 -0.907819 -0.707787
-0.301767 -0.924189 -0.712942
-0.26941 -0.90204 -0.715662
-0.277724 -0.905267 -0.718306
-0.267987 -0.898019 -0.718665
-0.278329 -0.912861 -0.703089
-0.32098 -0.929448 -0.70582
-0.313139 -0.917635 -0.691333
-0.32561 -0.915674 -0.718892
-0.280658 -0.906437 -0.722558
-0.318041 -0.898387 -0.733585
-0.317808 -0.89309 -0.736322
-0.27011 -0.909025 -0.707122
-0.275141 -0.910258 -0.706395
-0.318955 -0.911082 -0.724804
-0.271032 -0.887078 -0.724674
-0.297997 -0.890394 -0.735904
-0.329294 -0.912873 -0.721261
-0.333401 -0.909698 -0.722009
-0.329263 -0.909482 -0.725052
-0.306361 -0.881496 -0.739958
-0.312385 -0.884772 -0.739029
-0.324499 -0.884828 -0.738598
-0.270715 -0.876568 -0.726858
-0.27506 -0.876344 -0.73006
-0.279138 -0.875578 -0.734904
-0.282632 -0.879645 -0.734915
-0.293354 -0.881268 -0.738066
-0.31722 -0.883543 -0.739546
-0.288117 -0.881956 -0.736215
-0.307438 -0.886202 -0.738336
-0.319302 -0.887968 -0.738069
-0.282058 -0.91029 -0.688879
-0.277589 -0.911086 -0.693742
-0.290407 -0.913883 -0.687262
-0.299047 -0.91159 -0.687487
-0.312552 -0.923505 -0.700193
-0.279383 -0.896371 -0.72727
-0.313005 -0.89973 -0.732675
-0.30649 -0.925001 -0.711394
-0.291219 -0.922973 -0.713589
-0.298552 -0.879882 -0.739154
-0.295935 -0.885657 -0.737298
-0.260431 -0.90597 -0.705386
-0.259069 -0.904774 -0.700191
-0.286815 -0.919315 -0.703906
-0.335559 -0.910303 -0.717282
-0.267087 -0.89193 -0.719669
-0.263788 -0.896013 -0.720939
-0.312957 -0.919338 -0.696271
-0.30106 -0.884406 -0.738398
-0.294401 -0.914032 -0.690932
-0.305135 -0.893836 -0.735568
-0.251929 -0.898158 -0.711693
-0.317604 -0.923213 -0.698613
-0.335286 -0.912178 -0.712395
-0.335927 -0.900674 -0.72974
-0.338033 -0.9038 -0.726412
-0.33809 -0.906254 -0.721581
-0.334747 -0.895661 -0.732962
-0.308563 -0.915031 -0.688514
-0.317569 -0.889466 -0.693973
-0.334965 -0.912942 -0.7073
-0.332464 -0.918013 -0.705605
-0.33511 -0.92271 -0.704846
-0.332425 -0.932816 -0.703226
-0.320073 -0.928988 -0.699651
-0.325586 -0.931372 -0.704371
-0.3179 -0.920266 -0.694266
-0.335076 -0.927772 -0.70484
-0.325246 -0.930277 -0.698808
-0.322687 -0.925457 -0.697222
-0.327837 -0.888716 -0.737579
-0.27506 -0.876344 -0.73006
-0.308563 -0.915031 -0.688514
-0.319302 -0.887968 -0.738069
-0.317569 -0.889466 -0.693973
-0.299047 -0.91159 -0.687487
-0.304372 -0.914726 -0.691488
