-0.343244 -0.849386 -0.722181
-0.341828 -0.853398 -0.724902
-0.334684 -0.866415 -0.729857
-0.34379 -0.835132 -0.705716
-0.344537 -0.838113 -0.710466
-0.33164 -0.87059 -0.730306
-0.311563 -0.870441 -0.699673
-0.344468 -0.844916 -0.718614
-0.2936 -0.835724 -0.730523
-0.298423 -0.834503 -0.731076
-0.30001 -0.8302 -0.7271
-0.326654 -0.851997 -0.733137
-0.330475 -0.855234 -0.731741
-0.332354 -0.850142 -0.729618
-0.316397 -0.822235 -0.710269
-0.313457 -0.820525 -0.705098
-0.296906 -0.828252 -0.723526
-0.301782 -0.826691 -0.722792
-0.325145 -0.826589 -0.712938
-0.319491 -0.8243 -0.71382
-0.319383 -0.826316 -0.718798
-0.314005 -0.823145 -0.715692
-0.29688 -0.839176 -0.734365
-0.30876 -0.824822 -0.720747
-0.303723 -0.823919 -0.718167
-0.310705 -0.870757 -0.738111
-0.305754 -0.868873 -0.739231
-0.304833 -0.874621 -0.739413
-0.279677 -0.852006 -0.732994
-0.284314 -0.851348 -0.735208
-0.285446 -0.84639 -0.733839
-0.306866 -0.827766 -0.725308
-0.308746 -0.82244 -0.715935
-0.298745 -0.825055 -0.719087
-0.28056 -0.846605 -0.730801
-0.286358 -0.840898 -0.731243
-0.305092 -0.831312 -0.729576
-0.300801 -0.86777 -0.740238
-0.308891 -0.836526 -0.733289
-0.313822 -0.835416 -0.732126
-0.310643 -0.831846 -0.730013
-0.335138 -0.857464 -0.72901
-0.339919 -0.857888 -0.727452
-0.310994 -0.821009 -0.710743
-0.28689 -0.855199 -0.738313
-0.288903 -0.849785 -0.737217
-0.340281 -0.835313 -0.710986
-0.336772 -0.832147 -0.709299
-0.329705 -0.831576 -0.718253
-0.325082 -0.828678 -0.71791
-0.322854 -0.830282 -0.723038
-0.302034 -0.840141 -0.735661
-0.303804 -0.835362 -0.732592
-0.339224 -0.832094 -0.704909
-0.318647 -0.834556 -0.729994
-0.316909 -0.839214 -0.733451
-0.315626 -0.871002 -0.73713
-0.320607 -0.872435 -0.736942
-0.294196 -0.831523 -0.726475
-0.288769 -0.83628 -0.728775
-0.277672 -0.85768 -0.733159
-0.290899 -0.844467 -0.735867
-0.29108 -0.839885 -0.73318
-0.284534 -0.865603 -0.737356
-0.279962 -0.869528 -0.736389
-0.284579 -0.870687 -0.738512
-0.338776 -0.847579 -0.723629
-0.337154 -0.852142 -0.727568
-0.332125 -0.828537 -0.707806
-0.3173 -0.828252 -0.723777
-0.313974 -0.825337 -0.720587
-0.305777 -0.821077 -0.712113
-0.272273 -0.867212 -0.730045
-0.270988 -0.862375 -0.728426
-0.2735 -0.857984 -0.729785
-0.275463 -0.852287 -0.729702
-0.276434 -0.846922 -0.727439
-0.292099 -0.828964 -0.721726
-0.28169 -0.841628 -0.727997
-0.289431 -0.832374 -0.724607
-0.318871 -0.82186 -0.704582
-0.28678 -0.860932 -0.73838
-0.282259 -0.857463 -0.73627
-0.334336 -0.832917 -0.714838
-0.327961 -0.833624 -0.72311
-0.32191 -0.823572 -0.708316
-0.292075 -0.854788 -0.73941
-0.291959 -0.86046 -0.7397
-0.329673 -0.829182 -0.713385
-0.34475 -0.841347 -0.714713
-0.340121 -0.838457 -0.715736
-0.301178 -0.845125 -0.737996
-0.299128 -0.850628 -0.738724
-0.306235 -0.846361 -0.738433
-0.275294 -0.862923 -0.732447
-0.280362 -0.863337 -0.73559
-0.28413 -0.83709 -0.725496
-0.311985 -0.827905 -0.725298
-0.315477 -0.830938 -0.727996
-0.331082 -0.837358 -0.724767
-0.334933 -0.840542 -0.723364
-0.335441 -0.836276 -0.718558
-0.297032 -0.861663 -0.740179
-0.294921 -0.867395 -0.740258
-0.302075 -0.862927 -0.74043
-0.275724 -0.868338 -0.73352
-0.317163 -0.863155 -0.735866
-0.319411 -0.867554 -0.734268
-0.327549 -0.825877 -0.707406
-0.324216 -0.856984 -0.734889
-0.322567 -0.861698 -0.734403
-0.328585 -0.860285 -0.734023
-0.323342 -0.823011 -0.70266
-0.296028 -0.844167 -0.73667
-0.309827 -0.875668 -0.7402
-0.299739 -0.87369 -0.739616
-0.32962 -0.879016 -0.737465
-0.28968 -0.871757 -0.739318
-0.311775 -0.865107 -0.737683
-0.314819 -0.876586 -0.740046
-0.319815 -0.877503 -0.739883
-0.324735 -0.87831 -0.739019
-0.324354 -0.86638 -0.733248
-0.316123 -0.843985 -0.736508
-0.314181 -0.849216 -0.738062
-0.31906 -0.848209 -0.736495
-0.317103 -0.853467 -0.738021
-0.326409 -0.837857 -0.728091
-0.323324 -0.834055 -0.726677
-0.321688 -0.838501 -0.730857
-0.320871 -0.843314 -0.733802
-0.325572 -0.842849 -0.730359
-0.323798 -0.847589 -0.733657
-0.321987 -0.852409 -0.736624
-0.325539 -0.873997 -0.736397
-0.289745 -0.866471 -0.738923
-0.326973 -0.870712 -0.732878
-0.307092 -0.841362 -0.736123
-0.311217 -0.845083 -0.73776
-0.312053 -0.840143 -0.735256
-0.330999 -0.874617 -0.734218
-0.333131 -0.861656 -0.731561
-0.337141 -0.862008 -0.728237
-0.334145 -0.845302 -0.726589
-0.328495 -0.847061 -0.730493
-0.297107 -0.856063 -0.739702
-0.294109 -0.849309 -0.738574
-0.309187 -0.850524 -0.738658
-0.330469 -0.841907 -0.728529
-0.304189 -0.851839 -0.7392
-0.294763 -0.872805 -0.739986
-0.307025 -0.863094 -0.739714
-0.307972 -0.857837 -0.738198
-0.302031 -0.857638 -0.739041
-0.313888 -0.859547 -0.737304
-0.319405 -0.857811 -0.736743
-0.312135 -0.854711 -0.738832
-0.339556 -0.842748 -0.720599
-0.32951 -0.865469 -0.73201
