-0.373834 -0.845733 -0.674734
-0.377055 -0.845693 -0.67169
-0.383326 -0.838417 -0.669911
-0.370802 -0.810659 -0.673673
-0.370589 -0.810264 -0.674833
-0.369615 -0.817078 -0.663942
-0.369956 -0.816401 -0.663997
-0.370185 -0.815779 -0.665199
-0.365405 -0.821985 -0.660394
-0.364926 -0.822755 -0.660219
-0.37321 -0.808774 -0.672313
-0.377681 -0.86868 -0.657779
-0.372405 -0.863297 -0.665924
-0.371987 -0.863953 -0.665941
-0.383495 -0.864588 -0.654615
-0.383792 -0.862787 -0.655377
-0.37115 -0.857718 -0.670353
-0.367358 -0.877471 -0.660336
-0.365352 -0.875888 -0.662207
-0.36064 -0.836158 -0.691907
-0.360336 -0.831309 -0.693717
-0.375198 -0.821473 -0.647162
-0.375164 -0.822142 -0.646881
-0.368781 -0.810414 -0.682333
-0.369464 -0.808934 -0.682158
-0.387069 -0.843305 -0.656627
-0.364336 -0.820094 -0.671412
-0.381833 -0.815214 -0.651341
-0.379899 -0.809853 -0.658404
-0.380383 -0.809577 -0.658786
-0.372966 -0.815764 -0.653712
-0.370089 -0.814817 -0.671474
-0.369606 -0.815524 -0.672542
-0.369272 -0.816208 -0.672489
-0.369364 -0.815877 -0.673076
-0.367755 -0.816896 -0.674847
-0.368544 -0.816893 -0.673239
-0.357141 -0.833979 -0.669004
-0.35759 -0.826834 -0.684692
-0.357024 -0.831759 -0.672961
-0.356884 -0.829608 -0.680439
-0.364878 -0.823819 -0.653054
-0.366128 -0.822092 -0.652713
-0.363648 -0.828818 -0.65203
-0.385435 -0.805993 -0.685223
-0.383528 -0.804985 -0.681823
-0.357806 -0.835409 -0.666758
-0.363516 -0.834787 -0.658041
-0.367662 -0.815537 -0.678445
-0.376271 -0.805236 -0.687773
-0.392138 -0.839576 -0.656483
-0.393111 -0.839038 -0.657331
-0.392624 -0.839307 -0.656907
-0.36561 -0.826063 -0.65014
-0.366235 -0.825199 -0.649969
-0.366184 -0.824484 -0.650554
-0.379385 -0.804842 -0.684967
-0.378369 -0.804584 -0.68433
-0.378075 -0.8047 -0.685026
-0.37742 -0.804629 -0.685055
-0.374185 -0.808239 -0.694394
-0.373717 -0.80791 -0.693275
-0.371965 -0.805908 -0.681332
-0.371849 -0.806614 -0.680207
-0.362889 -0.825521 -0.694513
-0.362697 -0.825286 -0.693965
-0.362326 -0.82584 -0.694004
-0.391884 -0.807421 -0.675777
-0.386123 -0.805694 -0.671975
-0.385558 -0.805545 -0.672236
-0.384891 -0.805573 -0.671247
-0.383453 -0.804908 -0.674271
-0.382633 -0.804752 -0.674532
-0.38535 -0.80506 -0.677496
-0.384288 -0.804887 -0.676223
-0.383082 -0.804638 -0.677682
-0.360597 -0.827563 -0.69353
-0.359608 -0.828179 -0.692979
-0.36961 -0.80907 -0.686167
-0.369834 -0.808375 -0.685958
-0.37066 -0.808094 -0.686857
-0.376445 -0.827337 -0.646467
-0.378455 -0.830212 -0.645635
-0.378177 -0.830805 -0.645685
-0.383442 -0.811866 -0.656048
-0.368864 -0.852108 -0.650198
-0.367679 -0.852577 -0.649401
-0.367123 -0.86448 -0.645484
-0.366398 -0.864574 -0.645344
-0.382755 -0.832107 -0.645845
-0.381913 -0.832099 -0.64584
-0.382716 -0.832835 -0.645777
-0.38216 -0.824599 -0.647311
-0.381602 -0.825403 -0.646937
-0.380485 -0.827009 -0.646189
-0.388047 -0.807254 -0.668137
-0.388532 -0.807535 -0.667835
-0.388106 -0.807559 -0.667343
-0.382184 -0.829722 -0.645636
-0.381627 -0.830907 -0.645735
-0.384696 -0.825917 -0.647083
-0.384683 -0.820266 -0.649254
-0.384732 -0.817617 -0.650761
-0.368624 -0.85723 -0.647616
-0.368816 -0.857817 -0.647489
-0.371648 -0.849474 -0.653046
-0.379736 -0.821399 -0.647389
-0.380283 -0.819928 -0.647679
-0.380421 -0.821201 -0.647683
-0.385794 -0.825255 -0.647814
-0.386333 -0.825396 -0.648171
-0.387325 -0.824327 -0.649385
-0.386873 -0.825537 -0.648527
-0.387531 -0.820172 -0.651722
-0.386164 -0.818512 -0.651693
-0.395709 -0.810156 -0.672534
-0.395732 -0.81052 -0.671422
-0.395012 -0.809829 -0.672476
-0.387294 -0.813398 -0.656535
-0.387959 -0.814538 -0.655945
-0.366519 -0.862732 -0.645492
-0.369008 -0.859574 -0.646967
-0.368816 -0.860158 -0.646699
-0.368623 -0.860742 -0.64643
-0.385937 -0.809937 -0.660352
-0.386265 -0.80973 -0.660967
-0.387078 -0.810659 -0.660237
-0.387406 -0.810453 -0.660852
-0.385896 -0.831528 -0.64621
-0.364211 -0.856641 -0.646506
-0.390417 -0.809533 -0.665282
-0.388304 -0.810607 -0.661411
-0.388957 -0.810194 -0.662642
-0.389686 -0.811898 -0.660624
-0.37145 -0.855867 -0.649384
-0.373672 -0.851347 -0.652754
-0.372046 -0.853392 -0.650758
-0.381512 -0.805665 -0.687268
-0.380153 -0.87084 -0.653168
-0.379735 -0.871497 -0.653186
-0.377652 -0.86908 -0.650665
-0.377401 -0.869708 -0.650509
-0.378736 -0.869429 -0.651378
-0.382375 -0.866306 -0.653712
-0.379396 -0.864684 -0.65177
-0.382288 -0.860844 -0.654204
-0.381406 -0.85921 -0.653952
-0.381943 -0.859405 -0.654318
-0.383106 -0.813631 -0.653832
-0.370603 -0.841061 -0.653118
-0.381953 -0.853483 -0.657019
-0.383703 -0.850025 -0.66033
-0.383673 -0.850596 -0.660029
-0.383642 -0.851166 -0.659728
-0.377363 -0.827956 -0.646309
-0.37849 -0.829053 -0.645786
-0.375231 -0.851461 -0.653564
-0.376247 -0.852257 -0.653709
-0.396656 -0.813741 -0.667763
-0.396564 -0.811697 -0.669985
-0.396453 -0.812687 -0.668634
-0.382465 -0.804636 -0.680163
-0.382532 -0.804687 -0.680903
-0.382329 -0.804533 -0.678683
-0.371621 -0.87103 -0.647496
-0.372416 -0.871975 -0.648081
-0.374652 -0.866135 -0.648693
-0.3753 -0.86598 -0.649141
-0.376426 -0.864596 -0.649956
-0.376848 -0.865047 -0.650202
-0.376015 -0.860845 -0.65017
-0.37978 -0.859037 -0.65282
-0.378584 -0.860114 -0.651797
-0.380219 -0.853019 -0.655894
-0.377429 -0.855884 -0.652723
-0.378305 -0.856291 -0.652982
-0.390964 -0.832328 -0.649525
-0.392409 -0.829988 -0.652042
-0.391408 -0.830648 -0.650219
-0.391089 -0.807205 -0.680219
-0.380567 -0.806681 -0.690221
-0.382426 -0.806568 -0.688566
-0.362589 -0.831456 -0.693247
-0.363301 -0.82817 -0.694389
-0.362617 -0.833635 -0.692027
-0.386874 -0.819707 -0.677244
-0.381759 -0.824156 -0.67954
-0.387385 -0.80729 -0.683591
-0.388784 -0.807159 -0.682371
-0.3717 -0.81267 -0.695126
-0.369789 -0.81496 -0.695636
-0.369909 -0.818357 -0.693664
-0.364643 -0.832748 -0.690642
-0.366806 -0.829838 -0.690239
-0.392378 -0.809263 -0.668632
-0.393557 -0.820867 -0.658812
-0.392923 -0.819926 -0.657891
-0.375753 -0.834211 -0.646469
-0.376528 -0.853495 -0.653243
-0.376912 -0.854672 -0.65299
-0.390513 -0.827078 -0.650633
-0.39018 -0.827298 -0.650025
-0.39118 -0.826639 -0.651848
-0.391875 -0.824972 -0.65379
-0.391478 -0.825161 -0.653159
-0.393552 -0.816124 -0.660816
-0.394724 -0.813593 -0.664935
-0.393923 -0.813625 -0.663833
-0.387572 -0.832636 -0.647001
-0.388692 -0.832893 -0.647607
-0.391387 -0.809878 -0.665776
-0.370233 -0.869056 -0.646592
-0.36954 -0.86913 -0.646393
-0.369062 -0.86612 -0.645969
-0.370832 -0.866564 -0.646523
-0.370139 -0.866637 -0.646324
-0.371821 -0.864081 -0.647176
-0.372016 -0.861738 -0.647826
-0.37163 -0.862906 -0.64729
-0.374711 -0.861047 -0.649434
-0.373728 -0.856947 -0.650112
-0.373097 -0.856978 -0.649785
-0.374989 -0.856886 -0.650766
-0.377499 -0.848573 -0.655725
-0.376823 -0.849018 -0.655367
-0.376991 -0.848175 -0.655653
-0.376483 -0.847776 -0.655581
-0.391127 -0.821622 -0.654629
-0.39106 -0.822849 -0.653933
-0.391579 -0.838789 -0.654099
-0.377098 -0.875667 -0.653174
-0.376298 -0.875981 -0.65269
-0.375497 -0.876296 -0.652207
-0.375178 -0.876857 -0.65217
-0.394686 -0.833879 -0.65771
-0.395619 -0.828004 -0.661601
-0.395447 -0.826092 -0.662866
-0.396051 -0.827698 -0.663104
-0.396321 -0.822283 -0.665176
-0.376555 -0.87317 -0.651165
-0.378615 -0.807044 -0.666037
-0.376938 -0.807595 -0.667282
-0.396799 -0.817946 -0.665951
-0.396113 -0.818852 -0.664423
-0.396308 -0.820079 -0.664652
-0.367168 -0.856591 -0.64727
-0.36701 -0.855869 -0.647498
-0.393641 -0.833722 -0.654964
-0.393446 -0.833958 -0.65431
-0.39293 -0.835553 -0.653491
-0.395318 -0.832837 -0.659158
-0.395682 -0.832115 -0.660078
-0.394359 -0.817146 -0.661339
-0.392881 -0.825034 -0.655479
-0.393876 -0.838096 -0.657877
-0.393881 -0.837655 -0.657401
-0.395117 -0.829562 -0.6595
-0.373148 -0.872863 -0.648709
-0.370011 -0.813034 -0.693447
-0.362119 -0.823125 -0.68907
-0.363349 -0.822296 -0.690445
-0.363373 -0.821624 -0.688895
-0.394512 -0.823304 -0.660293
-0.394409 -0.823923 -0.659995
-0.391138 -0.842531 -0.659371
-0.380031 -0.807207 -0.66422
-0.387695 -0.844313 -0.659195
-0.387702 -0.843493 -0.657466
-0.38756 -0.841259 -0.653209
-0.387428 -0.840095 -0.651045
-0.386474 -0.845233 -0.659751
-0.383715 -0.836522 -0.646544
-0.384008 -0.838501 -0.647658
-0.383394 -0.838357 -0.647458
-0.38466 -0.841142 -0.650914
-0.3822 -0.840645 -0.649972
-0.382607 -0.846776 -0.658449
-0.382219 -0.847408 -0.658419
-0.382123 -0.834806 -0.645812
-0.389152 -0.837667 -0.649574
-0.378998 -0.843737 -0.654819
-0.378519 -0.843512 -0.654433
-0.377999 -0.843682 -0.654746
-0.377454 -0.840382 -0.649984
-0.377427 -0.836806 -0.647218
-0.376985 -0.837483 -0.647694
-0.378405 -0.838377 -0.647751
-0.377637 -0.83853 -0.64805
-0.372322 -0.88005 -0.652288
-0.371474 -0.88103 -0.652494
-0.372264 -0.879313 -0.651738
-0.372672 -0.878716 -0.651613
-0.371709 -0.878222 -0.65072
-0.37308 -0.878119 -0.651489
-0.37397 -0.877768 -0.651811
-0.375214 -0.846256 -0.65471
-0.375411 -0.845585 -0.654682
-0.376565 -0.845364 -0.655425
-0.377003 -0.842375 -0.652678
-0.375887 -0.837131 -0.647778
-0.375558 -0.836626 -0.647563
-0.37295 -0.837581 -0.64892
-0.37236 -0.838459 -0.650064
-0.372096 -0.832621 -0.646751
-0.367164 -0.872452 -0.646393
-0.368446 -0.841464 -0.655133
-0.367918 -0.841208 -0.655421
-0.370318 -0.837406 -0.650526
-0.370189 -0.833584 -0.647468
-0.369754 -0.834123 -0.648194
-0.369646 -0.835178 -0.649112
-0.367716 -0.839964 -0.655053
-0.3674 -0.837933 -0.654391
-0.371923 -0.847006 -0.654581
-0.371124 -0.848239 -0.6536
-0.367133 -0.833129 -0.649162
-0.360112 -0.82757 -0.665374
-0.360207 -0.828008 -0.664896
-0.364732 -0.82143 -0.666667
-0.363798 -0.821855 -0.667477
-0.361628 -0.826137 -0.664094
-0.362736 -0.824176 -0.664306
-0.362927 -0.825054 -0.663351
-0.359261 -0.850167 -0.677238
-0.360216 -0.855871 -0.671944
-0.365386 -0.876238 -0.658461
-0.365309 -0.875915 -0.654541
-0.362091 -0.844508 -0.655361
-0.36142 -0.846467 -0.653534
-0.363513 -0.859881 -0.645591
-0.364514 -0.860909 -0.645447
-0.363879 -0.860713 -0.645458
-0.371039 -0.875532 -0.649019
-0.367102 -0.874667 -0.64712
-0.368903 -0.876093 -0.648458
-0.367605 -0.876494 -0.648179
-0.366957 -0.876694 -0.648039
-0.36515 -0.867266 -0.645273
-0.365565 -0.867837 -0.645368
-0.368526 -0.814522 -0.690857
-0.370656 -0.811588 -0.693538
-0.371019 -0.809627 -0.6932
-0.367904 -0.815276 -0.689595
-0.368255 -0.814134 -0.689174
-0.36794 -0.813562 -0.687498
-0.367608 -0.813847 -0.686871
-0.366575 -0.816415 -0.687086
-0.366593 -0.815558 -0.686038
-0.369862 -0.818413 -0.653944
-0.370869 -0.818733 -0.652309
-0.373097 -0.841324 -0.651689
-0.37437 -0.840679 -0.650777
-0.375126 -0.841045 -0.651219
-0.373494 -0.843624 -0.654684
-0.374688 -0.842518 -0.653173
-0.371938 -0.812742 -0.665752
-0.374293 -0.808993 -0.666548
-0.373626 -0.809204 -0.667588
-0.373663 -0.805985 -0.67551
-0.375091 -0.805914 -0.67322
-0.374497 -0.8065 -0.672964
-0.375476 -0.805198 -0.674113
-0.376815 -0.806351 -0.691115
-0.375243 -0.806524 -0.691804
-0.377001 -0.805667 -0.689105
-0.375338 -0.805376 -0.688455
-0.373767 -0.805548 -0.689143
-0.365319 -0.821928 -0.693625
-0.364756 -0.822247 -0.693116
-0.364885 -0.821383 -0.691922
-0.363759 -0.82202 -0.690904
-0.362377 -0.824384 -0.692272
-0.363068 -0.823202 -0.691588
-0.361187 -0.825452 -0.69185
-0.367075 -0.814774 -0.681767
-0.367775 -0.813184 -0.684502
-0.368524 -0.811297 -0.686344
-0.368798 -0.810304 -0.685243
-0.368897 -0.809708 -0.683457
-0.369022 -0.809609 -0.685034
-0.36987 -0.807126 -0.685091
-0.36676 -0.815243 -0.685457
-0.36641 -0.816037 -0.684089
-0.367084 -0.814692 -0.683031
-0.356551 -0.826975 -0.679229
-0.357613 -0.825289 -0.679199
-0.357612 -0.825422 -0.678564
-0.356548 -0.827241 -0.677958
-0.359027 -0.823218 -0.678312
-0.357252 -0.826471 -0.676243
-0.356897 -0.827122 -0.675829
-0.39089 -0.837593 -0.65123
-0.39046 -0.83633 -0.649875
-0.390557 -0.835215 -0.649409
-0.391564 -0.833972 -0.650268
-0.392475 -0.833844 -0.651594
-0.376249 -0.806584 -0.669915
-0.377676 -0.805795 -0.670137
-0.37827 -0.805904 -0.669506
-0.372832 -0.805226 -0.683212
-0.373586 -0.804909 -0.683759
-0.374872 -0.804326 -0.681767
-0.373364 -0.804959 -0.680673
-0.374594 -0.804388 -0.67791
-0.359848 -0.823915 -0.685335
-0.357967 -0.827028 -0.687241
-0.357616 -0.827963 -0.688266
-0.358469 -0.826641 -0.687569
-0.359825 -0.824931 -0.687199
-0.36118 -0.823221 -0.68683
-0.361683 -0.822833 -0.687158
-0.369727 -0.812641 -0.676718
-0.369697 -0.813389 -0.676092
-0.369603 -0.810001 -0.679758
-0.369844 -0.809648 -0.679224
-0.370606 -0.813472 -0.672703
-0.370452 -0.811581 -0.675116
-0.379302 -0.804267 -0.676291
-0.378451 -0.804132 -0.676925
-0.37713 -0.804876 -0.673098
-0.376922 -0.804748 -0.673734
-0.376296 -0.804361 -0.675643
-0.371522 -0.814906 -0.658428
-0.356945 -0.828282 -0.673627
-0.358398 -0.827455 -0.671261
-0.357112 -0.830616 -0.671379
-0.363589 -0.825048 -0.655914
-0.364065 -0.824206 -0.65457
-0.364045 -0.823956 -0.65583
-0.365576 -0.821819 -0.694221
-0.366091 -0.819983 -0.69243
-0.365833 -0.820092 -0.691834
-0.365898 -0.81966 -0.691237
-0.362375 -0.821749 -0.686318
-0.363564 -0.820373 -0.686507
-0.363177 -0.820679 -0.686006
-0.362464 -0.820373 -0.682384
-0.36641 -0.842295 -0.657477
-0.366832 -0.843155 -0.65682
-0.367148 -0.844619 -0.655793
-0.36937 -0.84504 -0.655014
-0.369792 -0.8459 -0.654356
-0.367993 -0.846339 -0.654478
-0.369157 -0.846247 -0.654274
-0.369367 -0.848315 -0.652876
-0.364511 -0.82299 -0.655115
-0.364292 -0.82367 -0.656362
-0.364525 -0.823187 -0.656005
-0.36525 -0.822132 -0.656712
-0.363826 -0.824637 -0.657077
-0.364073 -0.824351 -0.657609
-0.357964 -0.825343 -0.68178
-0.358858 -0.824461 -0.684023
-0.360704 -0.822214 -0.682151
-0.369426 -0.814491 -0.675999
-0.36846 -0.815214 -0.677514
-0.368802 -0.814474 -0.677427
-0.367837 -0.815197 -0.678942
-0.368178 -0.814457 -0.678855
-0.360189 -0.822259 -0.679676
-0.360577 -0.82194 -0.680131
-0.35987 -0.822975 -0.680575
-0.361351 -0.8213 -0.681041
-0.373294 -0.809181 -0.66875
-0.37343 -0.809194 -0.669512
-0.374823 -0.807373 -0.669693
-0.371612 -0.81195 -0.670765
-0.372309 -0.81104 -0.670855
-0.35837 -0.828476 -0.667976
-0.359103 -0.826303 -0.669375
-0.359379 -0.825223 -0.670395
-0.360284 -0.825161 -0.667185
-0.367034 -0.828202 -0.64762
-0.366359 -0.82835 -0.648376
-0.365218 -0.82745 -0.649917
-0.364985 -0.826926 -0.65031
-0.364333 -0.828794 -0.650645
-0.363867 -0.827746 -0.651429
-0.361052 -0.831352 -0.663335
-0.361068 -0.830726 -0.663308
-0.358647 -0.828902 -0.666856
-0.359873 -0.829187 -0.665055
-0.360302 -0.828447 -0.664419
-0.360701 -0.82896 -0.663836
-0.358395 -0.825004 -0.675872
-0.373829 -0.818654 -0.649096
-0.374644 -0.818175 -0.649222
-0.375616 -0.815925 -0.650693
-0.376273 -0.817217 -0.649474
-0.376687 -0.819072 -0.647888
-0.37693 -0.818509 -0.648256
-0.363899 -0.835277 -0.657442
-0.363513 -0.834105 -0.657062
-0.363723 -0.833952 -0.656308
-0.36353 -0.833366 -0.656118
-0.363934 -0.833799 -0.655553
-0.364741 -0.834663 -0.654423
-0.364952 -0.834509 -0.653669
-0.365548 -0.835527 -0.653293
-0.364035 -0.823093 -0.663563
-0.363106 -0.823523 -0.664377
-0.364082 -0.822805 -0.664266
-0.365571 -0.821583 -0.664451
-0.363153 -0.823234 -0.665079
-0.362225 -0.823664 -0.665893
-0.365666 -0.821005 -0.665856
-0.36613 -0.820791 -0.665449
-0.368083 -0.819354 -0.665227
-0.36256 -0.852221 -0.648689
-0.361605 -0.853272 -0.648256
-0.361192 -0.85284 -0.648577
-0.363451 -0.852127 -0.648584
-0.363387 -0.853085 -0.648047
-0.362974 -0.852653 -0.648368
-0.364278 -0.852991 -0.647942
-0.363261 -0.855 -0.646972
-0.361542 -0.85423 -0.647718
-0.360939 -0.856671 -0.646426
-0.372614 -0.813747 -0.65771
-0.375198 -0.811706 -0.658564
-0.375714 -0.811298 -0.658735
-0.376546 -0.810579 -0.658413
-0.378123 -0.806447 -0.690994
-0.38188 -0.805853 -0.687851
-0.380557 -0.80571 -0.688077
-0.392934 -0.816921 -0.673128
-0.373801 -0.835613 -0.680587
-0.378782 -0.83179 -0.678052
-0.398028 -0.813583 -0.67021
-0.38365 -0.827481 -0.6759
-0.393499 -0.819349 -0.671214
-0.371333 -0.808112 -0.691903
-0.372766 -0.807868 -0.692444
-0.372376 -0.807014 -0.69072
-0.3742 -0.807623 -0.692986
-0.374548 -0.807257 -0.692592
-0.372724 -0.806647 -0.690326
-0.373072 -0.806281 -0.689932
-0.373419 -0.805915 -0.689538
-0.373812 -0.81737 -0.650649
-0.371815 -0.818015 -0.652366
-0.370808 -0.817695 -0.654001
-0.370062 -0.818097 -0.65445
-0.370305 -0.817535 -0.654818
-0.357866 -0.830592 -0.669822
-0.358316 -0.828773 -0.670002
-0.358646 -0.827396 -0.668996
-0.370521 -0.815616 -0.661761
-0.37075 -0.814993 -0.662962
-0.37198 -0.813603 -0.662534
-0.372595 -0.812907 -0.66232
-0.371709 -0.813365 -0.66455
-0.372438 -0.812358 -0.664937
-0.374397 -0.809961 -0.664895
-0.375627 -0.80857 -0.664467
-0.38702 -0.806388 -0.669535
-0.388156 -0.806851 -0.669533
-0.390763 -0.807576 -0.670734
-0.389125 -0.807413 -0.668929
-0.390428 -0.807775 -0.669529
-0.389925 -0.808074 -0.667722
-0.363859 -0.829714 -0.653387
-0.364095 -0.829616 -0.652505
-0.385592 -0.805076 -0.679031
-0.390955 -0.807243 -0.673162
-0.368937 -0.818046 -0.66622
-0.369962 -0.815759 -0.66767
-0.369619 -0.816692 -0.666331
-0.370986 -0.813601 -0.668478
-0.370985 -0.81373 -0.667836
-0.394779 -0.836822 -0.659925
-0.393858 -0.839418 -0.659306
-0.392258 -0.837255 -0.662076
-0.396209 -0.826909 -0.664276
-0.386242 -0.848053 -0.661582
-0.38792 -0.846269 -0.661012
-0.389598 -0.844484 -0.660443
-0.390994 -0.842908 -0.660021
-0.392043 -0.841771 -0.659679
-0.393306 -0.836118 -0.661734
-0.39399 -0.83623 -0.661018
-0.39048 -0.840892 -0.661673
-0.386607 -0.846803 -0.661955
-0.388339 -0.845778 -0.660896
-0.394673 -0.836342 -0.660302
-0.3908 -0.842253 -0.660584
-0.390435 -0.843503 -0.660211
-0.392896 -0.839979 -0.659899
-0.376128 -0.810603 -0.659614
-0.374567 -0.812329 -0.65955
-0.374464 -0.812042 -0.660258
-0.373427 -0.812188 -0.661998
-0.375718 -0.809455 -0.662449
-0.379116 -0.814459 -0.651908
-0.375207 -0.81422 -0.653674
-0.374557 -0.8139 -0.655061
-0.378537 -0.87423 -0.653731
-0.366392 -0.859131 -0.674049
-0.368821 -0.862151 -0.669986
-0.361255 -0.85621 -0.680578
-0.35986 -0.857396 -0.681173
-0.361691 -0.864095 -0.675475
-0.365754 -0.860254 -0.673975
-0.369964 -0.873447 -0.66219
-0.37165 -0.877518 -0.658193
-0.372074 -0.877028 -0.65809
-0.374184 -0.880608 -0.653989
-0.37588 -0.878648 -0.653576
-0.381375 -0.804944 -0.671915
-0.378616 -0.804953 -0.672488
-0.378207 -0.804762 -0.673739
-0.380149 -0.80437 -0.675668
-0.386845 -0.834699 -0.646567
-0.386943 -0.835359 -0.646938
-0.388259 -0.836936 -0.648287
-0.388064 -0.835616 -0.647545
-0.389087 -0.835213 -0.64778
-0.389184 -0.835873 -0.648151
-0.394343 -0.810108 -0.670265
-0.364558 -0.847068 -0.652862
-0.366309 -0.847195 -0.653197
-0.367509 -0.848792 -0.652172
-0.367528 -0.8497 -0.651423
-0.38078 -0.811081 -0.655875
-0.381686 -0.810749 -0.656753
-0.383089 -0.80936 -0.659715
-0.38393 -0.810362 -0.658124
-0.364372 -0.818737 -0.678838
-0.381021 -0.807722 -0.662279
-0.381362 -0.808246 -0.661252
-0.381565 -0.806247 -0.666138
-0.381997 -0.806525 -0.665754
-0.381906 -0.806771 -0.665111
-0.382588 -0.80782 -0.663056
-0.382748 -0.808836 -0.660743
-0.383179 -0.809115 -0.660358
-0.383361 -0.808623 -0.661645
-0.383952 -0.809917 -0.658947
-0.360381 -0.825678 -0.690434
-0.36011 -0.825017 -0.688073
-0.358537 -0.827201 -0.688989
-0.358971 -0.826253 -0.687897
-0.357399 -0.828437 -0.688812
-0.377443 -0.804055 -0.680777
-0.376102 -0.804053 -0.680002
-0.379792 -0.804133 -0.677701
-0.361627 -0.842453 -0.657398
-0.362654 -0.843517 -0.656308
-0.36367 -0.842503 -0.657321
-0.365378 -0.843584 -0.656207
-0.364529 -0.844083 -0.655713
-0.36131 -0.841451 -0.658543
-0.361114 -0.84192 -0.657942
-0.362476 -0.841954 -0.657891
-0.363456 -0.839608 -0.660897
-0.364034 -0.841519 -0.658441
-0.363838 -0.841988 -0.65784
-0.3652 -0.842022 -0.65779
-0.394085 -0.83082 -0.656371
-0.3939 -0.82975 -0.656272
-0.394094 -0.829559 -0.657052
-0.392949 -0.82818 -0.653732
-0.394297 -0.828109 -0.658512
-0.387492 -0.80576 -0.673889
-0.388744 -0.806211 -0.673864
-0.38739 -0.805936 -0.672639
-0.391097 -0.807377 -0.671938
-0.38789 -0.806382 -0.671063
-0.387188 -0.806289 -0.670138
-0.372761 -0.80614 -0.688238
-0.371776 -0.807343 -0.688391
-0.372355 -0.806403 -0.689661
-0.369168 -0.810583 -0.688458
-0.369806 -0.809747 -0.688698
-0.39389 -0.831056 -0.655717
-0.393701 -0.830616 -0.655277
-0.393511 -0.830176 -0.654837
-0.393299 -0.832441 -0.653541
-0.39272 -0.832473 -0.651793
-0.392932 -0.830208 -0.65309
-0.366136 -0.843414 -0.656588
-0.367658 -0.847369 -0.65344
-0.362866 -0.819838 -0.682229
-0.365516 -0.817372 -0.684067
-0.366069 -0.816751 -0.683986
-0.365076 -0.817352 -0.681906
-0.366015 -0.816424 -0.682325
-0.366181 -0.816109 -0.681745
-0.365345 -0.821935 -0.654822
-0.365949 -0.82174 -0.653429
-0.368154 -0.819395 -0.654634
-0.368958 -0.818884 -0.653748
-0.366953 -0.820913 -0.65305
-0.368558 -0.819515 -0.652734
-0.367956 -0.820086 -0.652671
-0.367756 -0.820401 -0.652164
-0.368158 -0.820146 -0.651721
-0.367766 -0.818461 -0.694826
-0.368162 -0.815854 -0.691329
-0.366736 -0.818898 -0.692442
-0.388355 -0.806053 -0.67896
-0.387634 -0.805817 -0.678875
-0.370252 -0.82491 -0.646793
-0.370871 -0.824707 -0.646787
-0.361464 -0.838115 -0.663101
-0.360388 -0.838047 -0.66375
-0.360853 -0.837452 -0.663429
-0.360954 -0.833713 -0.663127
-0.374593 -0.824032 -0.646563
-0.373987 -0.824617 -0.646524
-0.375268 -0.824084 -0.646604
-0.377016 -0.821692 -0.64672
-0.378227 -0.820522 -0.646798
-0.377691 -0.821743 -0.646761
-0.377967 -0.824291 -0.64677
-0.365631 -0.819511 -0.690027
-0.365614 -0.818993 -0.688799
-0.365578 -0.817957 -0.686342
-0.364776 -0.819027 -0.686654
-0.372169 -0.81154 -0.667526
-0.371331 -0.81254 -0.670459
-0.372173 -0.811027 -0.670093
-0.373013 -0.809771 -0.668444
-0.394733 -0.824828 -0.660878
-0.395062 -0.825142 -0.662083
-0.395258 -0.822818 -0.66252
-0.395474 -0.822666 -0.663271
-0.395925 -0.824531 -0.665088
-0.362425 -0.820606 -0.674146
-0.361017 -0.821501 -0.67684
-0.360147 -0.8221 -0.677967
-0.364515 -0.818799 -0.675784
-0.364742 -0.818495 -0.677228
-0.377008 -0.810748 -0.657971
-0.377932 -0.811087 -0.657089
-0.377822 -0.812242 -0.655864
-0.379372 -0.811018 -0.656376
-0.379317 -0.811595 -0.655764
-0.379779 -0.811764 -0.655323
-0.359776 -0.824146 -0.671801
-0.360026 -0.824177 -0.671199
-0.360658 -0.823049 -0.67231
-0.36267 -0.820885 -0.672726
-0.36361 -0.820397 -0.671776
-0.36317 -0.820946 -0.671522
-0.363229 -0.821555 -0.670063
-0.382236 -0.855714 -0.656004
-0.382231 -0.8563 -0.655669
-0.382763 -0.857082 -0.6557
-0.383858 -0.855125 -0.657774
-0.384395 -0.85532 -0.658141
-0.384385 -0.856493 -0.657471
-0.384374 -0.857666 -0.6568
-0.35714 -0.833491 -0.668621
-0.357538 -0.834003 -0.668039
-0.358007 -0.832086 -0.667544
-0.358319 -0.830807 -0.667213
-0.359428 -0.830554 -0.665719
-0.359912 -0.832858 -0.664884
-0.364144 -0.846636 -0.653183
-0.364259 -0.852083 -0.648691
-0.364673 -0.852515 -0.64837
-0.36293 -0.837731 -0.660989
-0.363415 -0.838217 -0.660362
-0.364168 -0.837173 -0.658606
-0.364653 -0.837659 -0.65798
-0.364251 -0.839954 -0.659675
-0.365045 -0.840301 -0.658452
-0.365706 -0.841413 -0.657795
-0.365396 -0.841552 -0.658391
-0.373841 -0.804955 -0.686006
-0.373556 -0.805118 -0.68668
-0.370507 -0.80629 -0.685331
-0.384003 -0.807478 -0.664518
-0.383334 -0.80716 -0.66493
-0.384029 -0.80894 -0.661233
-0.384711 -0.809989 -0.659178
-0.380853 -0.804512 -0.682111
-0.378233 -0.804229 -0.682228
-0.378098 -0.804126 -0.680748
-0.376268 -0.804016 -0.682316
-0.361962 -0.82076 -0.682056
-0.368621 -0.818488 -0.667454
-0.368971 -0.817562 -0.668795
-0.368997 -0.817199 -0.670726
-0.370331 -0.814463 -0.67094
-0.370656 -0.8139 -0.67035
-0.36603 -0.816873 -0.678596
-0.366 -0.816473 -0.680169
-0.365621 -0.816755 -0.680747
-0.366348 -0.815793 -0.681164
-0.368018 -0.817841 -0.694933
-0.368456 -0.817035 -0.695731
-0.368906 -0.815111 -0.694089
-0.36872 -0.815297 -0.693399
-0.368534 -0.815483 -0.692709
-0.369123 -0.812725 -0.691078
-0.368834 -0.813195 -0.690443
-0.368544 -0.813665 -0.689808
-0.369729 -0.8105 -0.690775
-0.369431 -0.811399 -0.690665
-0.370028 -0.809602 -0.690886
-0.369747 -0.809643 -0.689727
-0.369449 -0.810542 -0.689617
-0.368562 -0.812808 -0.68876
-0.368571 -0.812379 -0.688236
-0.36858 -0.811951 -0.687712
-0.361874 -0.834236 -0.662203
-0.362257 -0.834726 -0.661604
-0.370103 -0.83063 -0.646205
-0.373589 -0.825219 -0.646448
-0.374239 -0.828702 -0.646269
-0.369015 -0.825315 -0.646805
-0.36821 -0.824039 -0.648286
-0.368914 -0.823884 -0.647976
-0.368813 -0.822453 -0.649147
-0.368712 -0.821021 -0.650318
-0.369415 -0.820866 -0.650007
-0.370069 -0.819995 -0.650282
-0.372883 -0.819373 -0.649039
-0.366278 -0.81967 -0.668837
-0.366269 -0.819791 -0.668194
-0.368145 -0.818821 -0.667216
-0.363191 -0.820005 -0.674022
-0.363917 -0.819702 -0.673659
-0.364248 -0.8194 -0.674099
-0.365368 -0.819096 -0.672931
-0.36636 -0.818191 -0.674252
-0.36748 -0.817887 -0.673085
-0.368269 -0.817884 -0.671477
-0.367938 -0.818186 -0.671037
-0.370165 -0.808963 -0.676935
-0.370759 -0.808377 -0.677191
-0.370652 -0.808435 -0.677881
-0.37184 -0.807261 -0.678393
-0.373455 -0.805856 -0.676146
-0.377815 -0.813772 -0.65387
-0.380749 -0.813439 -0.652559
-0.375865 -0.81272 -0.656406
-0.380756 -0.811908 -0.654554
-0.387191 -0.805857 -0.681918
-0.386738 -0.805769 -0.682384
-0.389806 -0.806652 -0.681706
-0.389538 -0.806504 -0.681155
-0.38927 -0.806356 -0.680604
-0.386923 -0.805709 -0.681367
-0.359833 -0.860269 -0.677247
-0.359535 -0.855217 -0.679853
-0.359377 -0.855054 -0.679219
-0.358644 -0.840059 -0.687674
-0.358505 -0.835169 -0.690914
-0.358306 -0.844463 -0.682532
-0.359652 -0.842994 -0.664
-0.36051 -0.852112 -0.652284
-0.35743 -0.832419 -0.68313
-0.359765 -0.847657 -0.661717
-0.360384 -0.854028 -0.651209
-0.361242 -0.858461 -0.645756
-0.361116 -0.855691 -0.650944
-0.361849 -0.857355 -0.650679
-0.362582 -0.859018 -0.650413
-0.363441 -0.863451 -0.64496
-0.363624 -0.868749 -0.651395
-0.362572 -0.861774 -0.656529
-0.359514 -0.842117 -0.672092
-0.363238 -0.863664 -0.650758
-0.363904 -0.865554 -0.644987
-0.367919 -0.826858 -0.646893
-0.369164 -0.829505 -0.646302
-0.368882 -0.830841 -0.64662
-0.369269 -0.817945 -0.656449
-0.370046 -0.817097 -0.656224
-0.368559 -0.818515 -0.657386
-0.368625 -0.818237 -0.658099
-0.366085 -0.821077 -0.656419
-0.367397 -0.819936 -0.655545
-0.368246 -0.819079 -0.656142
-0.369203 -0.818222 -0.655737
-0.368956 -0.818508 -0.655204
-0.365946 -0.818708 -0.689426
-0.367904 -0.815964 -0.690733
-0.365919 -0.817931 -0.687584
-0.366243 -0.817388 -0.687597
-0.37818 -0.851056 -0.655298
-0.378423 -0.85165 -0.655446
-0.378515 -0.849369 -0.655869
-0.380084 -0.846929 -0.65774
-0.369622 -0.828638 -0.646341
-0.369782 -0.829302 -0.646296
-0.372854 -0.825432 -0.646443
-0.358986 -0.825096 -0.671951
-0.360308 -0.82345 -0.672714
-0.356889 -0.827504 -0.674376
-0.36005 -0.823704 -0.673777
-0.36207 -0.821256 -0.673732
-0.385361 -0.805945 -0.669717
-0.38179 -0.805595 -0.668711
-0.383531 -0.805906 -0.668571
-0.362003 -0.832203 -0.660412
-0.361671 -0.830516 -0.661909
-0.361529 -0.828732 -0.662617
-0.362065 -0.829697 -0.660304
-0.36276 -0.831818 -0.657255
-0.367178 -0.819682 -0.659285
-0.364776 -0.822546 -0.662639
-0.365238 -0.82201 -0.662907
-0.366714 -0.820272 -0.662408
-0.368746 -0.817869 -0.660874
-0.369668 -0.816796 -0.66141
-0.361885 -0.82842 -0.661206
-0.362046 -0.827456 -0.660725
-0.362554 -0.827553 -0.658719
-0.382266 -0.806014 -0.667163
-0.384765 -0.806372 -0.667898
-0.38561 -0.807602 -0.665104
-0.384999 -0.807589 -0.664722
-0.38622 -0.807615 -0.665486
-0.386337 -0.808224 -0.663898
-0.360152 -0.843672 -0.660727
-0.361026 -0.846943 -0.653106
-0.358604 -0.836749 -0.674102
-0.359041 -0.838385 -0.670292
-0.357375 -0.830454 -0.68464
-0.358367 -0.834733 -0.676047
-0.359678 -0.83964 -0.664616
-0.360115 -0.841276 -0.660806
-0.36575 -0.821506 -0.663203
-0.366488 -0.820637 -0.662953
-0.369442 -0.817161 -0.661955
-0.37018 -0.816292 -0.661706
-0.35851 -0.829573 -0.693248
-0.358049 -0.829954 -0.692887
-0.358193 -0.829249 -0.691981
-0.360164 -0.826152 -0.69098
-0.359401 -0.827076 -0.690891
-0.35894 -0.827457 -0.69053
-0.357414 -0.829305 -0.690352
-0.357558 -0.8286 -0.689446
-0.380447 -0.808243 -0.661255
-0.380345 -0.807956 -0.661963
-0.379173 -0.807933 -0.662618
-0.378411 -0.809058 -0.660437
-0.394682 -0.828022 -0.665089
-0.39519 -0.82624 -0.665632
-0.395699 -0.824459 -0.666174
-0.392819 -0.831101 -0.665089
-0.392649 -0.831694 -0.664908
-0.390785 -0.8365 -0.663914
-0.386549 -0.846166 -0.662376
-0.397515 -0.819596 -0.667247
-0.392647 -0.823905 -0.669399
-0.398002 -0.816993 -0.668284
-0.369038 -0.841544 -0.681714
-0.362615 -0.850042 -0.682931
-0.381757 -0.853225 -0.662858
-0.381788 -0.852654 -0.66316
-0.378721 -0.849841 -0.667711
-0.37553 -0.849311 -0.671057
-0.385163 -0.849761 -0.661623
-0.36417 -0.845853 -0.683866
-0.362645 -0.849471 -0.683233
-0.367391 -0.845813 -0.680822
-0.385022 -0.841995 -0.666234
-0.389769 -0.838337 -0.663823
-0.383497 -0.845613 -0.665601
-0.386719 -0.845572 -0.662557
-0.370058 -0.809532 -0.677844
-0.370591 -0.809242 -0.674395
-0.371119 -0.812017 -0.672261
-0.363084 -0.825936 -0.658309
-0.363119 -0.825716 -0.659623
-0.361711 -0.827889 -0.661968
-0.362081 -0.827236 -0.662039
-0.369727 -0.817023 -0.662796
-0.370524 -0.815359 -0.663508
-0.368936 -0.818174 -0.665578
-0.370527 -0.815102 -0.665254
-0.363488 -0.825063 -0.659694
-0.36432 -0.824065 -0.658142
-0.365885 -0.821216 -0.66057
-0.366439 -0.820551 -0.659535
-0.374709 -0.807406 -0.672023
-0.375405 -0.806495 -0.672113
-0.376845 -0.869993 -0.657814
-0.374416 -0.866973 -0.661878
-0.371569 -0.86461 -0.665959
-0.378099 -0.868024 -0.657762
-0.381782 -0.869075 -0.653646
-0.367547 -0.857258 -0.674051
-0.361853 -0.852531 -0.682213
-0.382538 -0.867172 -0.654028
-0.383454 -0.864033 -0.654976
-0.383974 -0.863296 -0.654909
-0.384172 -0.862095 -0.655416
-0.384568 -0.859694 -0.656431
-0.384912 -0.857861 -0.657167
-0.381737 -0.855571 -0.661518
-0.378541 -0.855627 -0.664528
-0.384943 -0.854342 -0.659178
-0.375377 -0.852164 -0.669549
-0.368985 -0.852276 -0.67557
-0.36898 -0.852862 -0.675235
-0.380368 -0.862316 -0.658911
-0.378198 -0.85746 -0.663793
-0.368303 -0.855355 -0.674434
-0.367965 -0.856601 -0.674034
-0.368642 -0.854109 -0.674834
-0.365456 -0.852992 -0.678515
-0.368289 -0.87775 -0.661187
-0.364742 -0.874725 -0.665354
-0.369043 -0.879937 -0.654468
-0.370584 -0.88138 -0.652172
-0.358664 -0.83739 -0.690804
-0.359842 -0.831617 -0.693442
-0.35931 -0.839506 -0.690174
-0.361667 -0.827961 -0.69545
-0.36054 -0.836286 -0.668594
-0.360629 -0.841434 -0.658569
-0.373918 -0.82398 -0.646522
-0.374089 -0.820638 -0.647926
-0.377553 -0.82047 -0.646757
-0.367983 -0.812599 -0.681383
-0.367925 -0.812952 -0.680821
-0.369695 -0.807523 -0.684407
-0.369921 -0.807489 -0.683195
-0.369406 -0.809287 -0.681596
-0.385747 -0.843955 -0.657358
-0.386382 -0.843869 -0.65762
-0.38712 -0.842825 -0.655372
-0.365287 -0.819428 -0.671889
-0.366036 -0.819519 -0.670083
-0.382917 -0.81699 -0.650123
-0.358657 -0.837593 -0.690009
-0.3591 -0.845274 -0.6857
-0.380296 -0.811356 -0.655494
-0.380339 -0.810467 -0.65714
-0.378932 -0.810404 -0.657641
-0.377547 -0.809895 -0.658965
-0.379481 -0.808794 -0.660491
-0.380909 -0.808412 -0.660813
-0.371665 -0.815124 -0.656487
-0.372412 -0.814721 -0.656037
-0.373905 -0.813916 -0.655137
-0.373291 -0.815924 -0.653019
-0.374784 -0.815119 -0.652119
-0.369664 -0.815831 -0.670833
-0.377825 -0.817931 -0.648548
-0.378476 -0.817914 -0.648472
-0.377814 -0.815314 -0.650833
-0.379775 -0.816573 -0.649463
-0.378466 -0.815297 -0.650757
-0.378789 -0.814635 -0.651291
-0.379118 -0.815281 -0.650681
-0.380093 -0.814603 -0.651139
-0.380421 -0.815249 -0.65053
-0.366691 -0.81789 -0.674693
-0.368819 -0.815902 -0.675002
-0.356773 -0.826887 -0.679154
-0.356992 -0.827066 -0.677808
-0.357671 -0.825739 -0.682669
-0.356595 -0.828683 -0.674031
-0.35703 -0.832423 -0.670503
-0.356974 -0.831645 -0.671252
-0.356962 -0.833042 -0.669858
-0.357073 -0.834598 -0.66836
-0.357252 -0.835535 -0.667506
-0.357174 -0.833669 -0.669327
-0.357263 -0.834138 -0.6689
-0.357464 -0.836162 -0.666975
-0.359217 -0.836847 -0.667283
-0.358046 -0.835647 -0.670817
-0.361369 -0.836983 -0.665986
-0.360831 -0.836949 -0.66631
-0.360103 -0.83465 -0.672404
-0.357223 -0.832215 -0.679796
-0.358932 -0.83345 -0.675938
-0.357666 -0.831117 -0.682356
-0.356689 -0.828247 -0.679906
-0.357265 -0.826959 -0.680078
-0.356964 -0.828008 -0.682812
-0.356888 -0.828704 -0.686742
-0.357239 -0.827769 -0.685717
-0.357415 -0.827301 -0.685205
-0.356685 -0.829152 -0.673604
-0.35659 -0.828019 -0.676489
-0.356879 -0.830512 -0.674137
-0.356784 -0.82938 -0.677022
-0.356834 -0.829494 -0.67873
-0.357603 -0.836745 -0.668257
-0.357458 -0.835498 -0.669433
-0.357268 -0.833234 -0.675202
-0.357033 -0.829951 -0.685566
-0.365056 -0.824172 -0.652339
-0.364922 -0.822859 -0.654042
-0.365681 -0.823308 -0.652169
-0.363619 -0.828444 -0.65392
-0.363172 -0.827645 -0.653445
-0.362949 -0.827246 -0.653208
-0.364114 -0.829866 -0.651245
-0.363338 -0.832781 -0.655928
-0.364381 -0.833547 -0.653917
-0.364282 -0.832388 -0.652401
-0.365995 -0.835275 -0.651657
-0.365759 -0.835374 -0.652539
-0.384708 -0.805827 -0.685107
-0.386355 -0.806029 -0.684354
-0.386546 -0.805899 -0.683369
-0.384823 -0.805419 -0.682585
-0.386203 -0.805473 -0.681283
-0.385743 -0.805455 -0.681717
-0.385475 -0.805307 -0.681166
-0.385207 -0.805159 -0.680615
-0.384264 -0.805361 -0.682988
-0.382585 -0.805186 -0.684196
-0.38388 -0.805621 -0.684958
-0.383496 -0.805881 -0.686929
-0.35743 -0.836472 -0.666652
-0.359093 -0.836092 -0.66441
-0.361802 -0.833607 -0.662207
-0.362745 -0.832445 -0.657283
-0.362938 -0.83303 -0.657472
-0.363138 -0.83498 -0.659619
-0.363331 -0.835565 -0.659809
-0.366378 -0.816192 -0.679591
-0.366864 -0.81586 -0.679375
-0.36669 -0.816201 -0.678877
-0.367626 -0.816226 -0.676736
-0.367974 -0.815546 -0.677731
-0.36891 -0.815571 -0.675589
-0.377925 -0.80547 -0.688424
-0.376841 -0.804909 -0.686425
-0.377203 -0.805096 -0.687091
-0.374901 -0.804838 -0.686448
-0.374254 -0.804814 -0.686456
-0.390175 -0.841975 -0.656216
-0.391153 -0.840996 -0.656588
-0.39164 -0.840727 -0.657012
-0.393134 -0.837276 -0.655425
-0.393122 -0.838157 -0.656378
-0.393597 -0.838769 -0.657754
-0.393586 -0.83965 -0.658707
-0.366285 -0.825915 -0.649383
-0.36696 -0.825767 -0.648627
-0.363584 -0.826507 -0.652408
-0.368109 -0.822608 -0.649458
-0.366083 -0.823052 -0.651726
-0.368008 -0.821177 -0.650629
-0.378505 -0.805191 -0.687054
-0.379092 -0.804958 -0.685663
-0.378798 -0.805074 -0.686359
-0.378143 -0.805003 -0.686388
-0.379972 -0.804609 -0.683576
-0.379317 -0.804538 -0.683605
-0.378662 -0.804467 -0.683635
-0.376765 -0.804558 -0.685084
-0.377352 -0.804326 -0.683693
-0.376336 -0.804068 -0.683056
-0.372253 -0.809387 -0.695548
-0.373702 -0.808526 -0.694682
-0.375634 -0.807378 -0.693528
-0.371801 -0.808442 -0.693022
-0.371091 -0.807611 -0.680079
-0.370037 -0.806783 -0.684319
-0.370737 -0.806139 -0.683886
-0.372492 -0.806322 -0.679211
-0.373193 -0.805677 -0.678778
-0.373135 -0.80603 -0.678215
-0.373308 -0.804972 -0.679902
-0.361571 -0.825923 -0.692946
-0.362313 -0.824815 -0.692869
-0.391383 -0.807156 -0.677281
-0.394157 -0.808205 -0.676837
-0.39153 -0.807317 -0.675264
-0.392813 -0.80787 -0.673777
-0.39203 -0.807582 -0.67376
-0.391676 -0.807478 -0.673247
-0.382579 -0.805067 -0.671667
-0.384326 -0.805424 -0.671508
-0.386173 -0.805606 -0.6726
-0.382224 -0.804561 -0.675783
-0.381812 -0.804596 -0.674794
-0.384685 -0.805029 -0.674999
-0.386121 -0.805246 -0.675101
-0.384273 -0.805064 -0.674009
-0.382017 -0.804691 -0.674168
-0.383862 -0.805099 -0.67302
-0.381809 -0.804822 -0.672553
-0.384964 -0.804966 -0.678694
-0.384771 -0.80492 -0.679293
-0.385977 -0.805169 -0.677834
-0.385157 -0.805013 -0.678095
-0.385108 -0.805043 -0.675961
-0.382262 -0.804482 -0.677943
-0.383467 -0.804731 -0.676484
-0.38284 -0.804621 -0.676147
-0.382647 -0.804575 -0.676746
-0.360981 -0.828034 -0.694626
-0.361201 -0.826477 -0.692985
-0.360514 -0.826549 -0.692162
-0.359992 -0.82865 -0.694075
-0.358702 -0.829809 -0.693796
-0.369421 -0.808516 -0.685508
-0.371109 -0.806703 -0.68644
-0.371333 -0.806008 -0.68623
-0.374541 -0.825925 -0.646454
-0.376289 -0.825427 -0.646613
-0.377241 -0.826132 -0.646619
-0.376047 -0.82794 -0.646391
-0.378733 -0.82962 -0.645586
-0.380377 -0.830104 -0.645265
-0.380537 -0.818629 -0.64821
-0.38046 -0.816375 -0.649757
-0.382592 -0.818035 -0.649091
-0.379327 -0.824144 -0.647104
-0.380128 -0.823908 -0.647279
-0.380744 -0.823073 -0.64757
-0.381731 -0.823435 -0.647628
-0.381115 -0.824269 -0.647336
-0.381977 -0.821404 -0.648153
-0.383825 -0.8189 -0.649028
-0.385849 -0.814297 -0.654367
-0.384977 -0.813291 -0.655127
-0.38142 -0.811945 -0.654892
-0.381874 -0.811779 -0.65533
-0.384349 -0.811534 -0.656925
-0.385011 -0.811953 -0.656765
-0.383233 -0.81128 -0.656647
-0.365263 -0.85286 -0.648232
-0.367591 -0.851264 -0.65025
-0.367766 -0.85389 -0.648553
-0.365982 -0.864003 -0.645248
-0.367432 -0.863816 -0.645529
-0.368263 -0.864958 -0.645719
-0.367643 -0.866286 -0.64563
-0.380993 -0.833547 -0.645697
-0.380955 -0.834275 -0.645628
-0.384477 -0.831395 -0.645926
-0.382639 -0.83429 -0.64564
-0.379512 -0.824743 -0.646987
-0.379755 -0.825309 -0.646788
-0.380557 -0.825073 -0.646962
-0.37944 -0.826679 -0.646214
-0.384321 -0.823323 -0.648034
-0.387138 -0.806997 -0.667947
-0.386595 -0.806411 -0.669043
-0.388649 -0.808144 -0.666247
-0.389133 -0.808425 -0.665945
-0.388957 -0.807512 -0.668326
-0.381071 -0.832092 -0.645834
-0.37931 -0.833532 -0.645685
-0.382375 -0.827778 -0.646087
-0.383448 -0.825496 -0.647086
-0.384564 -0.82389 -0.647834
-0.385167 -0.823762 -0.647958
-0.385254 -0.825113 -0.647457
-0.384869 -0.820865 -0.649137
-0.385171 -0.820437 -0.649715
-0.384546 -0.817019 -0.650878
-0.385405 -0.818386 -0.651105
-0.367061 -0.858529 -0.646502
-0.366603 -0.859158 -0.646089
-0.368359 -0.858445 -0.647076
-0.369803 -0.854757 -0.648984
-0.36973 -0.856559 -0.648317
-0.370957 -0.858278 -0.648222
-0.369304 -0.849575 -0.652082
-0.371018 -0.848843 -0.65323
-0.371062 -0.849499 -0.652805
-0.37219 -0.848792 -0.653712
-0.372233 -0.849448 -0.653287
-0.373361 -0.848741 -0.654194
-0.385696 -0.822614 -0.648913
-0.386235 -0.822756 -0.64927
-0.386775 -0.822897 -0.649626
-0.386741 -0.82351 -0.649278
-0.387987 -0.820726 -0.651732
-0.389673 -0.819923 -0.653498
-0.389539 -0.822376 -0.652106
-0.388932 -0.823462 -0.651053
-0.389472 -0.823603 -0.65141
-0.378504 -0.823069 -0.646806
-0.379051 -0.821597 -0.647096
-0.379598 -0.820126 -0.647385
-0.381584 -0.818895 -0.648264
-0.38696 -0.826889 -0.648027
-0.387864 -0.824469 -0.649741
-0.388943 -0.824751 -0.650455
-0.386514 -0.815436 -0.653777
-0.386397 -0.816461 -0.653082
-0.387426 -0.816543 -0.653797
-0.388338 -0.817649 -0.653817
-0.388104 -0.8197 -0.652427
-0.386386 -0.821117 -0.650313
-0.394967 -0.8091 -0.674701
-0.395327 -0.809446 -0.674174
-0.394653 -0.809483 -0.673003
-0.396766 -0.810828 -0.672066
-0.395057 -0.810558 -0.670251
-0.38642 -0.814658 -0.654309
-0.386001 -0.813486 -0.655508
-0.387864 -0.81376 -0.656478
-0.388587 -0.813311 -0.657562
-0.38925 -0.818756 -0.653837
-0.389061 -0.8172 -0.654901
-0.387787 -0.816318 -0.654339
-0.387142 -0.814209 -0.655393
-0.365069 -0.862919 -0.645212
-0.365149 -0.861106 -0.645437
-0.367969 -0.862546 -0.645772
-0.36706 -0.8597 -0.646107
-0.370956 -0.859449 -0.647827
-0.36843 -0.861326 -0.646162
-0.369536 -0.861826 -0.646467
-0.36915 -0.862995 -0.645931
-0.388705 -0.812518 -0.658777
-0.387564 -0.811795 -0.658891
-0.387649 -0.811021 -0.660179
-0.38822 -0.811382 -0.660122
-0.386423 -0.811073 -0.659006
-0.384954 -0.810557 -0.658506
-0.385282 -0.81035 -0.659121
-0.385609 -0.810144 -0.659736
-0.386593 -0.809523 -0.661582
-0.386678 -0.808748 -0.662871
-0.385203 -0.833586 -0.645726
-0.387205 -0.828869 -0.64704
-0.388359 -0.829121 -0.647596
-0.38832 -0.829848 -0.647528
-0.365166 -0.855589 -0.646939
-0.364688 -0.856115 -0.646722
-0.363896 -0.855196 -0.646961
-0.364527 -0.858085 -0.646051
-0.38971 -0.809964 -0.66375
-0.390279 -0.810326 -0.663693
-0.390705 -0.810302 -0.664185
-0.388715 -0.809626 -0.663315
-0.38857 -0.809241 -0.663864
-0.387575 -0.808903 -0.663429
-0.389032 -0.812311 -0.659392
-0.390013 -0.811692 -0.66124
-0.389527 -0.810555 -0.662586
-0.389854 -0.810349 -0.663202
-0.390666 -0.811278 -0.662472
-0.370819 -0.855899 -0.649057
-0.370187 -0.855931 -0.64873
-0.372327 -0.854629 -0.650293
-0.37359 -0.854565 -0.650947
-0.373151 -0.855184 -0.650492
-0.372712 -0.855803 -0.650038
-0.371011 -0.856485 -0.64893
-0.371203 -0.857072 -0.648803
-0.370572 -0.857104 -0.648476
-0.371868 -0.852093 -0.651435
-0.371415 -0.853424 -0.650431
-0.37241 -0.851411 -0.6521
-0.383203 -0.805997 -0.687624
-0.382761 -0.805505 -0.685764
-0.381731 -0.805244 -0.685294
-0.37698 -0.872652 -0.651119
-0.37623 -0.872245 -0.650059
-0.380571 -0.870184 -0.653151
-0.378485 -0.870056 -0.651222
-0.378234 -0.870683 -0.651066
-0.378153 -0.867826 -0.650977
-0.379238 -0.868174 -0.65169
-0.380071 -0.86915 -0.652247
-0.379821 -0.869777 -0.652091
-0.381407 -0.868871 -0.653116
-0.380573 -0.867896 -0.652559
-0.380812 -0.86725 -0.652705
-0.378404 -0.867199 -0.651133
-0.380749 -0.865784 -0.652642
-0.382854 -0.865014 -0.654005
-0.383396 -0.865188 -0.654362
-0.38153 -0.865312 -0.653146
-0.383093 -0.864368 -0.654152
-0.383332 -0.863722 -0.654299
-0.378894 -0.86593 -0.651443
-0.380206 -0.865609 -0.652286
-0.379618 -0.862663 -0.651921
-0.38121 -0.863117 -0.65294
-0.38202 -0.864043 -0.653456
-0.381769 -0.864666 -0.653292
-0.382271 -0.86342 -0.653619
-0.382802 -0.863571 -0.653959
-0.383583 -0.863099 -0.654462
-0.380399 -0.862192 -0.652424
-0.381461 -0.862494 -0.653104
-0.384178 -0.859497 -0.655985
-0.382621 -0.862196 -0.654037
-0.383152 -0.862348 -0.654376
-0.38388 -0.861298 -0.655223
-0.38159 -0.857923 -0.654405
-0.38248 -0.8596 -0.654685
-0.38311 -0.859151 -0.655278
-0.383017 -0.859795 -0.655052
-0.382559 -0.81576 -0.65136
-0.383884 -0.8166 -0.651039
-0.384186 -0.816172 -0.651617
-0.382141 -0.813639 -0.653415
-0.384791 -0.815318 -0.652772
-0.370524 -0.839206 -0.651923
-0.36998 -0.840996 -0.653475
-0.373018 -0.839469 -0.650494
-0.374291 -0.840218 -0.650178
-0.373071 -0.840706 -0.651291
-0.37063 -0.84168 -0.653516
-0.371876 -0.841811 -0.652802
-0.380695 -0.856015 -0.654471
-0.382322 -0.854839 -0.656576
-0.381497 -0.853 -0.65689
-0.382865 -0.854448 -0.657278
-0.381788 -0.849807 -0.658908
-0.382669 -0.851342 -0.658866
-0.384707 -0.849279 -0.661493
-0.38504 -0.852043 -0.660417
-0.384492 -0.853273 -0.659383
-0.377451 -0.829691 -0.645833
-0.380413 -0.828946 -0.645415
-0.380015 -0.829548 -0.645339
-0.389612 -0.818532 -0.654379
-0.390792 -0.818632 -0.655488
-0.389689 -0.815972 -0.656522
-0.389043 -0.813864 -0.657572
-0.389499 -0.814416 -0.657587
-0.390869 -0.816073 -0.657632
-0.392145 -0.816952 -0.658209
-0.392472 -0.816745 -0.658825
-0.390318 -0.814743 -0.658149
-0.390645 -0.814536 -0.658765
-0.389275 -0.81288 -0.65872
-0.390582 -0.812053 -0.661183
-0.38605 -0.828618 -0.646484
-0.387042 -0.827549 -0.647698
-0.389106 -0.826071 -0.649797
-0.389683 -0.826197 -0.650075
-0.389269 -0.827392 -0.64914
-0.390009 -0.828838 -0.64876
-0.374812 -0.851713 -0.653154
-0.375917 -0.853159 -0.65296
-0.374455 -0.849114 -0.654507
-0.374544 -0.849764 -0.654169
-0.377504 -0.851502 -0.654941
-0.396475 -0.814977 -0.666094
-0.395034 -0.813009 -0.665975
-0.395395 -0.812908 -0.666666
-0.397195 -0.814775 -0.667477
-0.397285 -0.815343 -0.666988
-0.397916 -0.814574 -0.668859
-0.398006 -0.815141 -0.668371
-0.395102 -0.811287 -0.668025
-0.395552 -0.811754 -0.668228
-0.396451 -0.811212 -0.670367
-0.397125 -0.811174 -0.671539
-0.397575 -0.811641 -0.671741
-0.396903 -0.813154 -0.668836
-0.397353 -0.813621 -0.669039
-0.380718 -0.80441 -0.680631
-0.38372 -0.804855 -0.680838
-0.373505 -0.870254 -0.648069
-0.373574 -0.872346 -0.648663
-0.374663 -0.870625 -0.648651
-0.375458 -0.87157 -0.649236
-0.374914 -0.869998 -0.648807
-0.37621 -0.869688 -0.649704
-0.373074 -0.868735 -0.64748
-0.376461 -0.869061 -0.64986
-0.376963 -0.867807 -0.650172
-0.373551 -0.867502 -0.647839
-0.373356 -0.866444 -0.647795
-0.374848 -0.867192 -0.648736
-0.374621 -0.867799 -0.648533
-0.374231 -0.865683 -0.648447
-0.375949 -0.865825 -0.64959
-0.378113 -0.866402 -0.65094
-0.377269 -0.865499 -0.650448
-0.378193 -0.864704 -0.651021
-0.3776 -0.863178 -0.650693
-0.375374 -0.862642 -0.649456
-0.376719 -0.862299 -0.650275
-0.377574 -0.859903 -0.651227
-0.37736 -0.860502 -0.650989
-0.377392 -0.862127 -0.650685
-0.378065 -0.861956 -0.651094
-0.377819 -0.860929 -0.651161
-0.378492 -0.860758 -0.65157
-0.378737 -0.861784 -0.651504
-0.376748 -0.858404 -0.651111
-0.37831 -0.858398 -0.652079
-0.379413 -0.857966 -0.652875
-0.379965 -0.857749 -0.653273
-0.379961 -0.861396 -0.652311
-0.379635 -0.855018 -0.654316
-0.380046 -0.854767 -0.654749
-0.378986 -0.853771 -0.654595
-0.37957 -0.851772 -0.656173
-0.379981 -0.851521 -0.656606
-0.38089 -0.850145 -0.658045
-0.376975 -0.857564 -0.651648
-0.377331 -0.85442 -0.6534
-0.378434 -0.853987 -0.654197
-0.39003 -0.835068 -0.64852
-0.390197 -0.832876 -0.64865
-0.390469 -0.834063 -0.649
-0.390853 -0.833789 -0.649437
-0.390035 -0.830228 -0.648388
-0.391074 -0.830867 -0.649612
-0.39162 -0.833241 -0.650312
-0.391347 -0.832054 -0.649962
-0.391091 -0.828839 -0.650254
-0.391139 -0.807011 -0.680278
-0.390233 -0.806836 -0.68121
-0.391567 -0.807196 -0.679782
-0.388422 -0.806485 -0.683075
-0.393302 -0.807837 -0.677828
-0.391944 -0.807573 -0.679227
-0.385224 -0.806307 -0.686126
-0.382885 -0.806586 -0.688132
-0.383345 -0.806604 -0.687698
-0.382446 -0.806384 -0.688649
-0.377749 -0.807126 -0.692579
-0.375521 -0.808091 -0.694107
-0.374902 -0.808117 -0.694665
-0.37338 -0.810047 -0.695013
-0.373107 -0.809526 -0.69555
-0.372141 -0.8101 -0.696128
-0.364043 -0.827063 -0.694311
-0.36333 -0.830349 -0.693169
-0.363273 -0.825992 -0.695609
-0.362532 -0.8271 -0.695687
-0.361192 -0.840207 -0.689742
-0.372969 -0.834436 -0.682024
-0.382838 -0.825193 -0.677958
-0.392348 -0.815604 -0.67442
-0.391629 -0.814912 -0.675475
-0.394945 -0.808735 -0.675814
-0.39019 -0.81353 -0.677583
-0.37863 -0.807398 -0.691616
-0.373611 -0.81038 -0.694617
-0.372204 -0.81143 -0.695341
-0.371123 -0.812885 -0.695542
-0.370546 -0.813099 -0.695957
-0.370115 -0.815365 -0.695114
-0.365378 -0.824886 -0.694271
-0.365448 -0.822682 -0.695414
-0.362597 -0.835826 -0.690845
-0.374235 -0.812538 -0.692859
-0.370003 -0.823102 -0.690978
-0.374398 -0.817962 -0.689736
-0.381073 -0.812963 -0.686312
-0.370167 -0.828525 -0.687856
-0.37912 -0.823668 -0.682249
-0.366665 -0.822722 -0.694268
-0.362527 -0.83803 -0.689702
-0.36154 -0.844229 -0.687217
-0.391582 -0.807658 -0.671636
-0.391624 -0.808326 -0.669832
-0.391247 -0.807857 -0.670431
-0.393467 -0.81 -0.668637
-0.393132 -0.810199 -0.667432
-0.392755 -0.809731 -0.668032
-0.391289 -0.808525 -0.668627
-0.394821 -0.821447 -0.661184
-0.393874 -0.821337 -0.659273
-0.394189 -0.821157 -0.659998
-0.394187 -0.820506 -0.660263
-0.393554 -0.819565 -0.659342
-0.393237 -0.819095 -0.658881
-0.393552 -0.818915 -0.659606
-0.392603 -0.818155 -0.65796
-0.37303 -0.835455 -0.647441
-0.373485 -0.833442 -0.64714
-0.374256 -0.83327 -0.646879
-0.37512 -0.830527 -0.646391
-0.376617 -0.831469 -0.645981
-0.376208 -0.832197 -0.646169
-0.37657 -0.832754 -0.646095
-0.376933 -0.83331 -0.64602
-0.375847 -0.856015 -0.651631
-0.375079 -0.853663 -0.652138
-0.37569 -0.853999 -0.652422
-0.390261 -0.827958 -0.649697
-0.39101 -0.828179 -0.650583
-0.390098 -0.826638 -0.650354
-0.390684 -0.825538 -0.651898
-0.391677 -0.827739 -0.651798
-0.391514 -0.826419 -0.652456
-0.392345 -0.8273 -0.653013
-0.392426 -0.82796 -0.652684
-0.390666 -0.824909 -0.65225
-0.392669 -0.824595 -0.655051
-0.392272 -0.824784 -0.654421
-0.391496 -0.82579 -0.652808
-0.392326 -0.826671 -0.653365
-0.392962 -0.817297 -0.658888
-0.392572 -0.81502 -0.66069
-0.393192 -0.816331 -0.660152
-0.392442 -0.814262 -0.661291
-0.392673 -0.813296 -0.662556
-0.392764 -0.811386 -0.664684
-0.393654 -0.811921 -0.665298
-0.394365 -0.811322 -0.666889
-0.394013 -0.814192 -0.663344
-0.389702 -0.834611 -0.648126
-0.389197 -0.833753 -0.647867
-0.390068 -0.819084 -0.654394
-0.391517 -0.818832 -0.656318
-0.39224 -0.81773 -0.657677
-0.392243 -0.819031 -0.657148
-0.39225 -0.821633 -0.656089
-0.39262 -0.811001 -0.665233
-0.390554 -0.80874 -0.666871
-0.393276 -0.810584 -0.666884
-0.367823 -0.868776 -0.64579
-0.36921 -0.868629 -0.646189
-0.368847 -0.869203 -0.646193
-0.368483 -0.869777 -0.646197
