-0.35173 -0.831042 -0.692527
-0.346546 -0.844981 -0.657489
-0.342191 -0.844666 -0.660014
-0.346671 -0.842195 -0.661819
-0.351744 -0.837891 -0.666317
-0.346745 -0.83565 -0.672254
-0.343208 -0.852846 -0.652425
-0.347257 -0.854572 -0.649661
-0.341838 -0.860649 -0.649233
-0.336407 -0.870549 -0.649861
-0.335844 -0.864734 -0.65182
-0.347358 -0.849866 -0.653393
-0.341099 -0.841251 -0.663951
-0.341344 -0.838619 -0.668603
-0.318962 -0.835279 -0.67436
-0.321328 -0.831452 -0.678427
-0.346218 -0.837875 -0.666886
-0.335538 -0.87559 -0.649924
-0.33951 -0.851754 -0.6562
-0.317819 -0.839601 -0.670625
-0.313385 -0.840659 -0.667989
-0.316401 -0.865803 -0.692006
-0.31335 -0.843814 -0.658111
-0.341599 -0.86648 -0.647961
-0.34761 -0.864362 -0.645944
-0.311752 -0.847646 -0.653883
-0.317267 -0.859556 -0.655104
-0.352474 -0.851228 -0.649148
-0.326995 -0.857102 -0.659353
-0.323949 -0.851826 -0.660876
-0.335831 -0.85553 -0.656438
-0.338012 -0.857381 -0.652027
-0.346218 -0.833094 -0.677655
-0.346582 -0.831003 -0.694172
-0.336561 -0.830291 -0.693171
-0.334362 -0.86071 -0.654696
-0.342788 -0.871358 -0.647965
-0.348811 -0.869327 -0.645215
-0.338262 -0.848088 -0.659681
-0.326225 -0.825557 -0.691643
-0.326446 -0.877864 -0.685029
-0.321011 -0.857188 -0.657423
-0.331537 -0.869347 -0.650964
-0.335264 -0.881527 -0.649771
-0.330252 -0.875091 -0.649795
-0.32148 -0.862672 -0.65846
-0.351861 -0.840565 -0.661506
-0.347555 -0.874079 -0.6465
-0.327903 -0.866415 -0.6543
-0.327206 -0.871647 -0.65196
-0.331372 -0.827981 -0.692423
-0.335389 -0.830549 -0.687458
-0.341511 -0.831462 -0.693844
-0.346431 -0.83048 -0.68914
-0.341513 -0.831303 -0.68874
-0.341609 -0.835969 -0.673252
-0.352789 -0.855768 -0.646399
-0.33998 -0.831703 -0.68397
-0.340016 -0.881574 -0.651408
-0.349825 -0.878693 -0.647546
-0.354433 -0.868232 -0.679195
-0.327725 -0.827638 -0.686532
-0.354494 -0.877154 -0.646326
-0.354064 -0.872083 -0.64504
-0.353641 -0.866896 -0.6446
-0.353239 -0.861848 -0.644631
-0.349051 -0.859135 -0.647631
-0.346032 -0.83079 -0.682932
-0.334169 -0.851156 -0.658816
-0.337036 -0.841376 -0.667156
-0.33102 -0.856859 -0.656
-0.341165 -0.833513 -0.678838
-0.326404 -0.862384 -0.657157
-0.334552 -0.84495 -0.662724
-0.328878 -0.851173 -0.659368
-0.336002 -0.837954 -0.671114
-0.336215 -0.835258 -0.675716
-0.329524 -0.845984 -0.661728
-0.323364 -0.867739 -0.656699
-0.332096 -0.840109 -0.668094
-0.3356 -0.832623 -0.680935
-0.328315 -0.842348 -0.665296
-0.331209 -0.836944 -0.672503
-0.327348 -0.839126 -0.669526
-0.323385 -0.845459 -0.665089
-0.331462 -0.834344 -0.677183
-0.326567 -0.833649 -0.675898
-0.331474 -0.830667 -0.68338
-0.322201 -0.83998 -0.668206
-0.323628 -0.836022 -0.672614
-0.326696 -0.830865 -0.680274
-0.308585 -0.844227 -0.656544
-0.323087 -0.827986 -0.68371
-0.351639 -0.831187 -0.687368
-0.317803 -0.842988 -0.666694
-0.31678 -0.854035 -0.653843
-0.320069 -0.852032 -0.657357
-0.312007 -0.840579 -0.663104
-0.316841 -0.843603 -0.661801
-0.316697 -0.847452 -0.656738
-0.320894 -0.847719 -0.66109
-0.312468 -0.852515 -0.651638
-0.341314 -0.876547 -0.649222
-0.351652 -0.834224 -0.676109
-0.35168 -0.835886 -0.67103
-0.351623 -0.832244 -0.682335
-0.352313 -0.848221 -0.653209
-0.352013 -0.843514 -0.657267
-0.345155 -0.880095 -0.649274
